2186.642822,-333.605591,-472.218994
2186.643066,-333.605621,-472.219025
2186.642822,-333.605591,-472.218994
2186.642090,-333.605499,-472.222870
2186.640869,-333.605316,-472.226654
2186.641113,-333.605347,-472.226715
2186.642334,-333.605530,-472.222931
2186.642334,-333.605530,-472.222931
2186.643311,-333.605682,-472.219086
2186.642578,-333.605560,-472.222961
2186.642578,-333.605560,-472.222961
2186.642822,-333.605591,-472.223022
2186.643311,-333.605652,-472.223114
2186.643311,-333.605652,-472.223114
2186.643311,-333.605652,-472.223114
2186.643311,-333.605652,-472.223114
2186.643066,-333.605621,-472.223083
2186.642578,-333.607513,-472.223022
2186.642090,-333.605499,-472.226929
2186.641846,-333.605438,-472.230865
2186.641846,-333.605438,-472.230865
2186.641113,-333.605347,-472.234772
2186.641846,-333.605438,-472.230865
2186.642090,-333.605469,-472.226898
2186.641602,-333.605408,-472.226776
2186.642090,-333.605499,-472.222870
2186.642822,-333.605591,-472.218994
2186.642578,-333.607483,-472.218994
2186.642822,-333.605591,-472.218994
2186.641846,-333.605438,-472.222809
2186.641846,-333.605438,-472.222809
2186.641113,-333.605347,-472.226715
2186.642334,-333.605530,-472.222931
2186.643066,-333.605621,-472.223083
2186.644043,-333.605774,-472.219238
2186.644531,-333.605865,-472.219360
2186.645020,-333.605957,-472.219482
2186.644287,-333.605835,-472.219330
2186.643799,-333.605743,-472.223236
2186.644287,-333.605804,-472.219299
2186.644287,-333.605804,-472.219299
2186.644531,-333.605865,-472.219360
2186.644287,-333.605835,-472.219330
2186.644287,-333.605835,-472.219330
2186.645020,-333.605927,-472.219452
2186.645020,-333.605927,-472.219452
2186.644043,-333.605804,-472.223297
2186.645020,-333.605957,-472.219482
2186.645264,-333.605957,-472.219513
2186.644287,-333.605804,-472.223358
2186.644775,-333.605896,-472.223450
2186.644775,-333.605896,-472.223450
2186.644775,-333.605896,-472.223450
2186.644775,-333.605896,-472.223450
2186.644775,-333.607849,-472.223511
2186.645020,-333.605927,-472.223511
2186.643555,-333.607666,-472.227295
2186.643799,-333.605743,-472.227295
2186.643311,-333.607635,-472.227234
2186.644043,-333.607758,-472.223389
2186.644531,-333.605865,-472.223419
2186.645508,-333.605988,-472.219574
2186.645264,-333.605957,-472.219513
2186.645264,-333.605957,-472.219513
2186.646240,-333.606110,-472.215698
2186.646484,-333.606140,-472.215729
2186.646973,-333.606232,-472.211853
2186.646484,-333.606140,-472.215729
2186.645996,-333.606079,-472.215668
2186.645020,-333.607910,-472.219574
2186.644043,-333.605774,-472.227325
2186.643066,-333.605621,-472.231140
2186.642822,-333.605591,-472.231110
2186.644043,-333.605774,-472.227325
2186.644775,-333.605896,-472.223450
2186.644531,-333.605865,-472.223419
2186.644043,-333.605804,-472.227356
2186.644287,-333.607788,-472.227478
2186.644043,-333.607727,-472.227386
2186.643799,-333.607697,-472.227325
2186.643555,-333.605713,-472.227234
2186.643799,-333.605743,-472.227295
2186.644287,-333.605804,-472.223358
2186.645264,-333.605957,-472.219513
2186.645020,-333.605927,-472.219452
2186.644287,-333.605804,-472.223358
2186.644287,-333.605804,-472.223358
2186.644043,-333.605804,-472.223297
2186.643066,-333.607574,-472.227173
2186.642334,-333.607483,-472.227051
2186.642334,-333.607452,-472.227020
2186.643311,-333.607605,-472.223175
2186.643555,-333.607666,-472.223267
2186.643799,-333.605743,-472.223236
2186.643555,-333.605713,-472.223175
2186.643799,-333.605743,-472.223236
2186.643311,-333.605682,-472.223145
2186.642822,-333.605591,-472.223022
2186.642578,-333.605560,-472.222992
2186.641602,-333.605408,-472.226776
2186.642090,-333.605499,-472.222870
2186.642334,-333.605530,-472.222931
2186.642578,-333.605560,-472.222961
2186.642090,-333.607422,-472.222931
2186.642090,-333.607452,-472.222961
2186.641602,-333.605408,-472.226776
2186.642090,-333.605499,-472.222870
2186.641846,-333.605469,-472.222839
2186.642090,-333.605499,-472.222870
2186.642578,-333.605560,-472.222961
2186.643555,-333.605713,-472.219147
2186.643311,-333.605682,-472.219086
2186.643311,-333.605682,-472.219086
2186.643066,-333.605652,-472.219055
2186.643066,-333.605652,-472.219055
2186.642578,-333.605560,-472.222992
2186.641602,-333.605408,-472.226776
2186.641357,-333.605377,-472.226746
2186.640137,-333.605194,-472.230530
2186.640137,-333.605194,-472.230530
2186.641113,-333.605347,-472.226715
2186.641846,-333.605469,-472.222839
2186.642090,-333.605499,-472.222870
2186.642334,-333.605530,-472.222931
2186.642578,-333.605560,-472.222961
2186.642578,-333.605560,-472.222961
2186.642578,-333.605560,-472.222992
2186.641602,-333.607361,-472.226868
2186.640625,-333.607239,-472.230713
2186.641113,-333.607269,-472.226746
2186.641357,-333.605377,-472.226746
2186.641357,-333.605377,-472.226746
2186.640869,-333.605316,-472.226654
2186.641113,-333.605347,-472.226715
2186.642578,-333.605560,-472.218933
2186.642334,-333.605499,-472.218872
2186.642822,-333.605591,-472.218994
2186.641846,-333.605438,-472.222809
2186.641846,-333.605469,-472.222839
2186.642090,-333.605499,-472.222870
2186.641846,-333.605469,-472.222839
2186.641846,-333.605438,-472.222809
2186.641846,-333.605438,-472.222809
2186.641602,-333.605408,-472.222778
2186.641846,-333.605438,-472.222809
2186.641846,-333.605438,-472.222809
2186.642334,-333.605499,-472.218872
2186.641602,-333.605438,-472.218750
2186.641602,-333.605408,-472.218719
2186.641602,-333.605408,-472.218719
2186.641602,-333.605408,-472.218719
2186.640625,-333.605255,-472.222534
2186.640625,-333.607208,-472.222626
2186.639648,-333.607056,-472.226440
2186.639648,-333.605133,-472.226410
2186.639648,-333.607056,-472.226440
2186.640625,-333.605286,-472.222565
2186.641602,-333.605438,-472.218750
2186.641113,-333.605347,-472.218628
2186.641113,-333.605347,-472.218628
2186.639648,-333.605103,-472.226349
2186.638672,-333.604980,-472.230225
2186.638672,-333.604980,-472.230225
2186.638428,-333.604919,-472.230133
2186.637939,-333.604858,-472.230072
2186.639160,-333.605042,-472.226288
2186.639648,-333.605103,-472.222351
2186.640869,-333.605286,-472.218567
2186.640625,-333.605255,-472.218536
2186.641357,-333.605377,-472.214630
2186.641846,-333.605438,-472.214752
2186.641602,-333.605408,-472.214691
2186.640381,-333.605225,-472.218445
2186.639404,-333.605072,-472.222260
2186.638672,-333.604950,-472.226166
2186.637695,-333.604797,-472.229980
2186.637207,-333.604736,-472.229889
2186.638184,-333.604889,-472.226044
2186.638184,-333.604889,-472.226044
2186.638916,-333.606964,-472.222260
2186.639648,-333.605103,-472.222351
2186.640137,-333.607147,-472.218475
2186.640381,-333.605225,-472.218475
2186.640381,-333.605225,-472.218445
2186.639893,-333.607086,-472.218414
2186.639648,-333.607056,-472.218384
2186.639648,-333.607056,-472.218384
2186.640381,-333.605225,-472.214447
2186.640625,-333.605255,-472.214478
2186.641602,-333.605408,-472.210663
2186.640625,-333.605255,-472.214478
2186.640381,-333.605225,-472.214447
2186.640381,-333.605225,-472.214447
2186.639404,-333.605072,-472.218262
2186.639404,-333.605072,-472.218262
2186.639648,-333.605103,-472.218292
2186.639648,-333.605133,-472.218323
2186.639648,-333.605103,-472.218292
2186.639893,-333.605164,-472.218384
2186.639893,-333.605164,-472.218384
2186.640625,-333.605255,-472.214478
2186.640137,-333.605164,-472.214355
2186.640381,-333.605225,-472.214447
2186.640137,-333.605164,-472.214355
2186.639893,-333.605133,-472.214325
2186.640137,-333.605164,-472.214355
2186.639404,-333.605103,-472.214233
2186.638184,-333.606842,-472.218079
2186.636963,-333.606628,-472.221802
2186.637451,-333.606750,-472.217896
2186.637695,-333.606781,-472.217957
2186.637695,-333.606781,-472.217957
2186.637939,-333.606812,-472.218018
2186.639160,-333.605042,-472.214172
2186.638672,-333.604980,-472.214081
2186.639404,-333.605072,-472.210175
2186.639160,-333.605011,-472.210114
2186.638184,-333.604889,-472.213928
2186.636230,-333.604584,-472.221619
2186.635742,-333.604523,-472.221497
2186.634766,-333.604370,-472.225311
2186.635010,-333.604401,-472.225372
2186.635986,-333.604553,-472.221527
2186.636719,-333.604675,-472.217682
2186.636719,-333.604675,-472.217682
2186.636475,-333.604645,-472.217651
2186.636963,-333.604706,-472.217712
2186.634766,-333.604370,-472.221313
2186.631592,-333.603882,-472.224640
2186.632080,-333.603973,-472.224762
2186.633301,-333.604126,-472.220978
2186.634521,-333.604340,-472.221222
2186.634766,-333.604370,-472.221283
2186.635254,-333.604462,-472.217377
2186.636963,-333.604706,-472.217712
2186.636719,-333.604645,-472.213623
2186.637207,-333.604736,-472.217743
2186.650391,-333.606750,-472.224640
2186.649170,-333.606537,-472.224365
2186.648193,-333.606415,-472.228241
2186.650635,-333.606812,-472.228790
2186.646973,-333.606232,-472.227966
2186.649658,-333.606628,-472.224487
2186.648682,-333.606476,-472.228302
2186.648193,-333.606415,-472.228241
2186.651855,-333.606964,-472.229004
2186.651611,-333.606964,-472.224945
2186.654785,-333.607391,-472.221558
2186.656982,-333.607758,-472.226105
2186.659180,-333.608093,-472.230621
2186.660645,-333.608307,-472.230927
2186.662842,-333.608673,-472.235443
2186.661621,-333.608490,-472.231140
2186.665283,-333.609009,-472.227875
2186.677246,-333.612823,-472.230560
2186.680908,-333.611389,-472.231232
2186.683838,-333.611877,-472.235962
2186.688477,-333.612579,-472.236938
2186.692383,-333.613159,-472.237762
2186.697754,-333.613983,-472.238953
2186.703125,-333.614807,-472.240082
2186.706787,-333.615356,-472.240906
2186.711914,-333.618073,-472.242035
2186.721436,-333.619537,-472.244110
2186.725098,-333.620117,-472.248932
2186.728271,-333.620575,-472.257690
2186.730957,-333.619049,-472.274353
2186.732422,-333.619263,-472.290802
2186.734375,-333.619568,-472.311462
2186.736816,-333.619934,-472.340210
2186.746094,-333.621368,-472.370483
2186.745117,-333.621185,-472.406586
2186.744873,-333.621155,-472.442841
2186.742920,-333.622833,-472.482880
2186.739990,-333.622406,-472.522644
2186.736328,-333.621826,-472.570282
2186.734375,-333.621490,-472.622314
2186.727783,-333.620514,-472.673370
2186.724854,-333.618103,-472.733246
2186.722656,-333.617798,-472.793335
2186.717041,-333.616913,-472.860748
2186.708740,-333.615662,-472.927551
2186.701172,-333.614502,-473.002625
2186.693115,-333.613281,-473.081665
2186.684570,-333.611969,-473.164581
2186.673828,-333.610321,-473.251038
2186.667236,-333.611298,-473.334503
2186.655518,-333.607544,-473.420685
2186.648682,-333.608459,-473.500061
2186.641846,-333.605438,-473.575195
2186.635010,-333.604431,-473.650452
2186.629150,-333.603516,-473.725891
2186.623291,-333.602631,-473.797302
2186.614258,-333.601257,-473.872070
2186.609375,-333.600494,-473.947723
2186.602295,-333.599426,-474.035004
2186.595947,-333.598450,-474.114380
2186.587891,-333.597229,-474.193390
2186.583740,-333.596588,-474.269226
2186.584961,-333.598724,-474.342224
2186.580322,-333.598022,-474.413910
2186.577148,-333.597534,-474.489929
2186.573242,-333.596924,-474.565796
2186.568359,-333.596191,-474.637451
2186.563232,-333.595398,-474.717102
2186.558594,-333.592773,-474.796814
2186.553223,-333.591919,-474.884430
2186.549561,-333.591370,-474.968475
2186.538818,-333.589752,-475.050964
2186.534180,-333.589020,-475.130676
2186.531738,-333.588623,-475.206879
2186.528320,-333.588135,-475.282867
2186.523682,-333.589386,-475.354645
2186.521973,-333.589111,-475.431000
2186.518311,-333.586609,-475.510895
2186.515869,-333.588196,-475.595245
2186.511230,-333.587463,-475.679077
2186.507568,-333.584961,-475.754974
2186.501709,-333.584045,-475.830383
2186.266846,-333.548218,-502.387085
2186.238525,-333.543945,-502.469910
2186.211426,-333.539764,-502.552948
2186.187744,-333.536194,-502.628723
2186.156982,-333.531494,-502.698761
2186.139648,-333.528839,-502.775970
2186.135254,-333.528168,-502.847992
2186.125244,-333.526642,-502.926910
2186.116211,-333.525238,-503.005951
2186.105713,-333.523651,-503.088806
2186.102295,-333.523132,-503.169220
2186.094971,-333.523956,-503.244720
2186.085449,-333.520569,-503.319580
2186.078613,-333.519531,-503.395172
2186.068359,-333.517944,-503.469910
2186.061035,-333.516846,-503.541321
2186.054199,-333.515808,-503.612823
2186.045410,-333.514435,-503.679779
2186.038574,-333.513397,-503.747223
2186.033447,-333.512634,-503.811005
2186.030029,-333.512085,-503.867035
2186.027344,-333.511688,-503.919220
2186.029297,-333.511993,-503.968384
2186.030762,-333.512207,-504.013367
2186.035156,-333.512878,-504.050934
2186.039307,-333.513519,-504.080322
2186.045410,-333.514435,-504.102020
2186.045898,-333.514526,-504.122467
2186.051270,-333.515350,-504.139923
2186.056396,-333.516144,-504.165466
2186.062500,-333.517059,-504.179047
2186.069336,-333.518097,-504.192780
2186.077148,-333.519287,-504.198639
2186.084229,-333.520386,-504.204376
2186.094238,-333.521912,-504.202606
2186.103760,-333.523346,-504.200745
2186.112549,-333.524719,-504.198730
2186.122559,-333.526245,-504.196991
2186.126709,-333.526825,-504.201935
2186.132813,-333.527802,-504.211517
2186.138184,-333.528595,-504.216797
2186.144043,-333.529480,-504.218140
2186.150391,-333.532440,-504.223755
2186.154785,-333.531158,-504.228760
2186.159424,-333.531860,-504.233887
2186.162842,-333.532379,-504.238739
2186.166260,-333.532898,-504.239532
2186.170898,-333.533600,-504.240601
2186.175049,-333.534241,-504.241547
2186.178955,-333.534821,-504.242432
2186.182129,-333.535309,-504.243164
2186.185059,-333.535736,-504.247894
2186.180908,-333.535126,-504.251007
2186.185059,-333.537689,-504.252014
2186.187744,-333.538116,-504.252655
2186.190674,-333.536591,-504.253265
2186.191895,-333.536804,-504.253540
2186.194092,-333.537140,-504.254059
2186.199707,-333.537994,-504.255341
2186.200684,-333.538147,-504.255585
2186.202637,-333.538452,-504.256042
2186.204834,-333.538788,-504.256561
2186.205078,-333.538818,-504.260681
2186.205811,-333.538940,-504.260834
2186.206787,-333.539063,-504.261047
2186.209961,-333.539551,-504.265839
2186.202881,-333.538483,-504.264221
2186.205566,-333.538910,-504.260773
2186.202148,-333.538391,-504.259979
2186.202881,-333.538483,-504.264221
2186.202881,-333.538452,-504.268250
2186.202148,-333.538391,-504.272186
2186.201172,-333.538239,-504.280060
2186.202881,-333.538483,-504.280426
2186.202637,-333.538452,-504.284454
2186.202881,-333.538483,-504.288574
2186.203857,-333.538635,-504.288818
2186.205566,-333.538910,-504.285156
2186.206787,-333.539063,-504.281342
2186.208008,-333.539246,-504.277557
2186.209229,-333.539429,-504.277832
2186.211670,-333.539825,-504.274353
2186.211426,-333.541748,-504.278442
2186.212646,-333.539948,-504.282684
2186.213867,-333.540131,-504.282959
2186.214600,-333.540283,-504.283173
2186.214111,-333.540192,-504.287109
2186.214355,-333.540222,-504.291229
2186.215820,-333.540466,-504.287506
2186.215820,-333.540436,-504.291534
2186.216553,-333.540558,-504.291718
2186.216797,-333.540619,-504.295868
2186.217285,-333.540680,-504.300049
2186.218018,-333.540802,-504.304260
2186.221191,-333.541260,-504.300903
2186.222900,-333.541534,-504.301300
2186.225830,-333.541962,-504.301971
2186.227295,-333.542206,-504.306396
2186.228516,-333.542358,-504.310699
2186.230225,-333.542633,-504.311096
2186.231689,-333.542847,-504.315491
2186.234375,-333.543304,-504.316162
2186.237549,-333.543793,-504.316895
2186.239746,-333.544098,-504.317383
2186.243652,-333.544708,-504.314209
2186.247070,-333.545227,-504.310974
2186.249268,-333.545563,-504.311462
2186.251709,-333.545929,-504.312012
2186.252930,-333.546112,-504.316376
2186.253662,-333.546234,-504.320618
2186.256104,-333.546600,-504.321136
2186.258301,-333.546936,-504.321655
2186.260986,-333.547333,-504.322266
2186.261963,-333.547485,-504.326538
2186.262451,-333.547577,-504.330719
2186.262695,-333.547607,-504.334869
2186.263916,-333.547791,-504.339172
2186.265625,-333.548065,-504.339600
2186.266113,-333.548096,-504.339691
2186.266602,-333.548218,-504.339844
2186.264893,-333.547913,-504.343445
2186.262207,-333.547516,-504.342834
2186.259766,-333.547150,-504.342285
2186.255859,-333.546570,-504.341400
2186.253906,-333.546265,-504.345032
2186.252930,-333.546112,-504.344788
2186.251709,-333.545929,-504.344482
2186.251221,-333.545837,-504.340302
2186.248047,-333.545380,-504.343689
2186.247070,-333.545227,-504.343445
2186.246094,-333.545074,-504.339172
2186.244873,-333.544861,-504.338837
2186.243164,-333.546570,-504.338501
2186.241943,-333.546387,-504.338226
2186.239014,-333.545959,-504.345703
2186.237793,-333.543823,-504.345367
2186.238770,-333.543945,-504.341522
2186.237305,-333.543732,-504.345245
2186.236572,-333.543640,-504.345093
2186.235352,-333.543427,-504.348816
2186.235107,-333.543396,-504.348785
2186.235352,-333.543427,-504.348816
2186.235596,-333.543488,-504.348907
2186.236084,-333.543518,-504.348999
2186.234863,-333.543365,-504.356873
2186.235107,-333.543396,-504.356903
2186.236084,-333.543518,-504.357117
2186.237305,-333.543732,-504.353333
2186.238770,-333.543945,-504.349640
2186.239258,-333.544037,-504.349762
2186.239014,-333.543976,-504.353760
2186.239258,-333.544037,-504.353821
2186.239990,-333.544128,-504.353943
2186.240479,-333.544220,-504.354126
2186.241211,-333.544312,-504.354248
2186.241455,-333.546326,-504.354401
2186.242188,-333.546448,-504.354553
2186.243652,-333.544708,-504.350800
2186.243896,-333.544708,-504.354858
2186.244385,-333.544830,-504.355011
2186.243164,-333.544617,-504.362823
2186.243408,-333.544678,-504.362885
2186.243408,-333.544647,-504.366913
2186.242920,-333.544586,-504.370911
2186.243408,-333.544647,-504.370972
2186.243652,-333.544708,-504.371063
2186.245117,-333.544922,-504.367340
2186.245361,-333.544983,-504.367401
2186.246826,-333.545197,-504.367737
2186.248291,-333.545410,-504.368073
2186.249512,-333.545593,-504.364288
2186.250244,-333.545685,-504.364441
2186.251465,-333.545898,-504.368805
2186.253418,-333.546173,-504.369263
2186.253906,-333.548187,-504.369415
2186.253662,-333.546234,-504.373383
2186.253662,-333.546204,-504.377411
2186.253906,-333.548218,-504.381592
2186.254395,-333.546356,-504.385742
2186.254395,-333.546326,-504.385712
2186.255615,-333.546509,-504.381927
2186.255859,-333.546570,-504.386078
2186.255859,-333.546570,-504.386078
2186.255615,-333.546509,-504.385986
2186.256592,-333.546692,-504.386230
2186.257813,-333.548828,-504.386597
2186.257813,-333.548798,-504.386566
2186.258301,-333.548889,-504.386688
2186.259277,-333.547089,-504.386841
2186.261230,-333.547394,-504.387299
2186.261719,-333.547455,-504.391479
2186.263428,-333.547699,-504.391846
2186.263672,-333.547760,-504.395996
2186.264893,-333.547913,-504.396240
2186.265869,-333.550018,-504.396545
2186.265625,-333.549988,-504.400543
2186.266113,-333.550079,-504.400665
2186.266357,-333.550110,-504.400726
2186.267090,-333.548279,-504.400848
2186.268555,-333.548492,-504.397095
2186.269287,-333.548615,-504.393250
2186.269287,-333.548615,-504.397308
2186.270752,-333.548828,-504.393524
2186.269531,-333.548645,-504.397339
2186.270508,-333.548798,-504.397552
2186.270752,-333.548828,-504.397583
2186.271729,-333.548981,-504.393768
2186.272461,-333.549103,-504.393982
2186.272705,-333.549103,-504.398041
2186.272949,-333.551117,-504.398163
2186.272705,-333.549133,-504.402161
2186.271729,-333.550903,-504.406006
2186.272705,-333.549103,-504.406158
2186.272705,-333.549133,-504.406219
2186.272217,-333.550995,-504.406128
2186.272217,-333.549072,-504.406097
2186.272461,-333.549103,-504.406128
2186.271484,-333.550903,-504.410034
2186.270996,-333.548889,-504.413940
2186.270996,-333.548859,-504.417969
2186.270020,-333.550690,-504.421906
2186.270508,-333.548798,-504.421936
2186.272705,-333.549133,-504.414307
2186.272461,-333.549103,-504.414246
2186.273438,-333.549225,-504.410400
2186.273682,-333.549286,-504.410492
2186.274170,-333.549347,-504.410553
2186.274414,-333.549377,-504.410645
2186.273438,-333.549225,-504.414459
2186.272461,-333.549103,-504.418335
2186.272217,-333.549072,-504.418274
2186.271729,-333.548981,-504.422211
2186.271729,-333.548950,-504.422180
2186.271240,-333.548920,-504.422089
2186.271484,-333.548950,-504.422150
2186.272217,-333.549072,-504.418274
2186.272461,-333.549103,-504.418335
2186.271973,-333.549011,-504.422272
2186.273193,-333.549194,-504.418488
2186.272461,-333.551025,-504.422424
2186.273438,-333.549225,-504.418518
2186.273193,-333.549194,-504.418488
2186.272949,-333.549164,-504.418396
2186.272217,-333.549072,-504.418274
2186.271240,-333.548920,-504.422089
2186.270752,-333.548828,-504.421967
2186.270020,-333.548737,-504.425873
2186.271240,-333.548920,-504.422089
2186.272217,-333.549072,-504.418274
2186.271484,-333.548950,-504.422150
2186.271729,-333.548950,-504.422180
2186.271484,-333.548950,-504.422150
2186.270508,-333.548798,-504.425995
2186.270264,-333.548767,-504.425934
2186.270264,-333.548767,-504.425934
2186.270020,-333.550690,-504.425964
2186.271484,-333.548950,-504.422150
2186.271729,-333.548950,-504.422180
2186.271729,-333.548950,-504.422180
2186.271729,-333.548981,-504.422211
2186.270996,-333.548889,-504.426117
2186.270508,-333.550751,-504.426056
2186.271240,-333.550873,-504.422180
2186.271240,-333.550873,-504.422180
2186.270508,-333.548798,-504.425995
2186.270508,-333.548798,-504.425995
2186.270508,-333.548798,-504.425995
2186.268799,-333.548523,-504.429657
2186.267578,-333.548340,-504.429382
2186.267822,-333.548370,-504.429413
2186.267334,-333.548309,-504.429291
2186.265381,-333.548004,-504.428833
2186.263916,-333.547821,-504.428558
2186.263184,-333.547668,-504.428345
2186.263916,-333.547791,-504.424438
2186.262451,-333.547577,-504.428192
2186.260986,-333.547333,-504.431885
2186.260254,-333.547211,-504.431732
2186.260254,-333.547241,-504.431763
2186.259277,-333.547089,-504.435577
2186.259277,-333.547089,-504.431519
2186.259277,-333.547089,-504.431519
2186.259521,-333.547150,-504.431610
2186.259033,-333.547058,-504.431488
2186.257080,-333.546753,-504.435089
2186.256348,-333.546661,-504.438995
2186.257080,-333.546753,-504.435089
2186.256836,-333.546692,-504.434998
2186.256836,-333.546692,-504.430939
2186.254395,-333.546356,-504.434479
2186.252930,-333.546112,-504.434113
2186.251953,-333.545990,-504.433899
2186.250488,-333.545746,-504.437592
2186.248535,-333.545441,-504.441223
2186.248047,-333.545349,-504.441101
2186.246826,-333.545166,-504.444885
2186.247803,-333.545319,-504.441040
2186.247559,-333.545319,-504.441010
2186.247559,-333.545319,-504.441010
2186.247559,-333.545288,-504.440979
2186.246826,-333.545197,-504.440857
2186.245605,-333.545013,-504.444641
2186.246094,-333.545074,-504.444702
2186.245605,-333.544983,-504.444580
2186.244385,-333.544800,-504.448364
2186.244385,-333.544830,-504.448395
2186.243652,-333.544678,-504.448212
2186.243164,-333.544617,-504.448090
2186.242432,-333.544495,-504.447906
2186.241699,-333.544434,-504.447784
2186.242432,-333.544525,-504.443878
2186.240479,-333.544220,-504.447510
2186.239746,-333.544098,-504.451355
2186.239990,-333.544159,-504.451447
2186.240479,-333.544220,-504.451538
2186.240479,-333.544220,-504.451538
2186.240479,-333.544220,-504.451538
2186.240479,-333.544220,-504.451569
2186.241211,-333.544312,-504.447632
2186.240723,-333.544250,-504.447540
2186.240479,-333.544220,-504.447510
2186.240723,-333.544250,-504.447540
2186.241211,-333.544342,-504.447662
2186.241211,-333.544342,-504.447662
2186.240967,-333.544281,-504.447601
2186.240479,-333.544220,-504.447510
2186.240479,-333.544220,-504.447510
2186.240723,-333.546204,-504.447601
2186.240967,-333.546234,-504.447662
2186.241699,-333.544403,-504.447754
2186.241211,-333.546265,-504.447723
2186.241455,-333.546295,-504.447754
2186.241211,-333.544342,-504.451721
2186.241211,-333.544342,-504.451721
2186.241211,-333.544342,-504.451721
2186.241211,-333.544342,-504.451721
2186.240234,-333.544189,-504.455566
2186.239990,-333.544159,-504.455505
2186.240479,-333.544220,-504.451569
2186.239990,-333.544128,-504.455475
2186.240967,-333.544281,-504.451660
2186.239990,-333.544128,-504.455475
2186.240234,-333.544189,-504.455566
2186.241455,-333.544373,-504.451782
2186.241699,-333.544403,-504.451813
2186.241699,-333.544403,-504.451813
2186.240967,-333.544281,-504.455719
2186.239990,-333.544159,-504.459564
2186.239990,-333.544128,-504.459534
2186.239502,-333.544037,-504.459412
2186.239502,-333.544037,-504.459412
2186.239990,-333.544159,-504.455505
2186.240479,-333.544220,-504.455597
2186.239746,-333.544098,-504.459503
2186.238281,-333.543884,-504.463226
2186.238037,-333.545807,-504.463226
2186.238037,-333.545807,-504.463226
2186.238281,-333.543884,-504.463226
2186.238770,-333.543945,-504.463318
2186.238770,-333.543976,-504.463348
2186.239258,-333.544037,-504.463440
2186.239990,-333.544128,-504.459534
2186.239990,-333.544128,-504.459534
2186.239502,-333.544037,-504.463470
2186.239502,-333.544037,-504.463470
2186.239502,-333.544037,-504.463470
2186.239990,-333.544159,-504.459564
2186.239990,-333.544159,-504.459564
2186.240723,-333.544250,-504.455688
2186.239746,-333.544098,-504.459503
2186.239746,-333.544098,-504.459503
2186.238770,-333.543976,-504.463348
2186.239258,-333.544037,-504.463440
2186.239014,-333.544006,-504.463409
2186.239258,-333.544037,-504.463440
2186.238770,-333.545898,-504.463409
2186.238281,-333.543854,-504.467255
2186.239502,-333.544037,-504.463470
2186.239502,-333.544037,-504.463470
2186.238525,-333.543915,-504.467346
2186.238770,-333.543945,-504.467377
2186.238525,-333.543915,-504.467346
2186.238281,-333.543884,-504.467285
2186.238281,-333.543854,-504.467255
2186.238281,-333.545837,-504.463318
2186.238770,-333.543945,-504.463318
2186.238770,-333.543945,-504.463318
2186.236328,-333.543579,-504.470886
2186.236328,-333.543610,-504.470917
2186.235840,-333.543518,-504.474854
2186.235840,-333.543518,-504.474854
2186.235840,-333.543518,-504.474854
2186.236084,-333.543549,-504.474884
2186.237061,-333.543701,-504.471069
2186.237061,-333.543701,-504.471069
2186.238037,-333.543823,-504.467224
2186.238281,-333.543884,-504.463226
2186.237305,-333.543732,-504.467041
2186.237305,-333.543732,-504.467041
2186.236328,-333.543610,-504.470917
2186.235840,-333.543488,-504.474823
2186.236572,-333.543610,-504.470947
2186.236572,-333.543610,-504.470947
2186.237793,-333.543823,-504.467163
2186.237793,-333.543823,-504.467163
2186.237305,-333.543732,-504.471130
2186.236572,-333.543640,-504.475006
2186.235840,-333.543518,-504.478912
2186.235596,-333.543457,-504.478821
2186.235840,-333.543488,-504.478882
2186.236084,-333.543549,-504.478943
2186.235840,-333.543518,-504.478912
2186.236816,-333.543640,-504.475067
2186.235352,-333.545380,-504.478821
2186.235107,-333.543396,-504.478760
2186.235107,-333.543396,-504.478760
2186.235107,-333.543396,-504.478760
2186.234619,-333.543304,-504.482666
2186.235352,-333.543427,-504.478790
2186.235596,-333.543457,-504.478821
2186.235107,-333.543396,-504.478760
2186.235107,-333.543396,-504.478760
2186.236328,-333.543610,-504.474976
2186.237549,-333.543793,-504.471191
2186.237793,-333.543823,-504.471252
2186.237549,-333.545715,-504.471252
2186.237549,-333.543793,-504.471191
2186.237061,-333.543701,-504.471069
2186.235840,-333.543518,-504.474854
2186.235107,-333.543396,-504.478699
2186.234131,-333.543243,-504.482574
2186.233154,-333.543091,-504.486389
2186.233154,-333.543091,-504.486389
2186.233887,-333.543182,-504.482483
2186.232910,-333.543060,-504.486359
2186.232666,-333.543030,-504.486298
2186.233398,-333.543121,-504.482361
2186.233398,-333.543121,-504.482361
2186.234131,-333.543243,-504.478516
2186.234619,-333.545258,-504.474609
2186.235352,-333.543427,-504.474731
2186.236328,-333.543579,-504.470886
2186.235107,-333.543396,-504.474701
2186.234619,-333.543304,-504.478577
2186.234375,-333.543274,-504.478546
2186.232910,-333.543060,-504.482300
2186.231934,-333.542938,-504.486145
2186.232422,-333.542969,-504.486237
2186.232422,-333.542969,-504.486237
2186.233398,-333.543121,-504.482361
2186.233887,-333.543213,-504.478455
2186.233887,-333.543213,-504.478455
2186.235107,-333.543396,-504.474640
2186.234863,-333.545319,-504.474701
2186.234619,-333.543335,-504.478638
2186.235107,-333.543396,-504.474640
2186.235352,-333.543427,-504.474731
2186.235107,-333.543396,-504.474701
2186.233887,-333.543182,-504.478424
2186.233398,-333.543152,-504.478333
2186.232666,-333.543030,-504.482239
2186.231445,-333.542847,-504.486023
2186.231201,-333.542786,-504.485931
2186.231689,-333.542877,-504.481995
2186.231445,-333.542847,-504.481964
2186.232422,-333.542969,-504.478088
2186.232910,-333.543060,-504.474152
2186.231934,-333.542908,-504.477966
2186.231689,-333.542877,-504.477936
2186.231445,-333.542847,-504.477905
2186.230713,-333.542725,-504.477722
2186.230225,-333.542664,-504.477600
2186.229492,-333.542511,-504.481476
2186.229248,-333.542480,-504.481415
2186.228271,-333.542328,-504.485260
2186.227051,-333.542175,-504.489075
2186.227051,-333.542145,-504.489014
2186.227051,-333.542145,-504.489014
2186.226563,-333.542084,-504.488953
2186.227295,-333.542206,-504.485046
2186.227295,-333.542206,-504.485046
2186.228271,-333.542358,-504.481232
2186.228760,-333.542419,-504.481293
2186.229004,-333.542480,-504.481384
2186.229248,-333.542480,-504.481415
2186.228516,-333.542389,-504.485321
2186.229736,-333.542572,-504.481537
2186.229736,-333.542572,-504.481537
2186.229248,-333.542480,-504.481415
2186.229248,-333.542480,-504.481415
2186.229248,-333.542480,-504.481415
2186.229248,-333.542480,-504.481415
2186.228760,-333.542450,-504.481354
2186.228760,-333.542419,-504.481293
2186.229492,-333.542542,-504.477448
2186.229004,-333.542480,-504.481384
2186.228027,-333.542297,-504.485199
2186.228027,-333.542297,-504.485199
2186.227051,-333.542175,-504.489075
2186.227783,-333.542267,-504.485168
2186.226807,-333.542114,-504.488983
2186.225830,-333.541992,-504.492859
2186.225830,-333.541992,-504.492859
2186.226563,-333.542084,-504.488953
2186.226318,-333.542053,-504.488892
2186.226318,-333.542053,-504.488861
2186.225586,-333.541931,-504.492767
2186.225830,-333.541962,-504.492798
2186.224854,-333.541840,-504.496674
2186.224609,-333.541809,-504.496613
2186.223877,-333.541687,-504.500519
2186.223877,-333.541687,-504.500519
2186.223877,-333.541656,-504.500488
2186.224854,-333.541840,-504.496674
2186.224365,-333.541779,-504.496582
2186.225098,-333.541870,-504.492676
2186.225098,-333.541870,-504.492676
2186.225098,-333.541870,-504.492676
2186.225098,-333.541840,-504.492645
2186.225342,-333.541901,-504.492737
2186.223877,-333.541687,-504.496460
2186.222168,-333.541412,-504.500122
2186.222900,-333.541534,-504.496216
2186.221924,-333.541382,-504.500031
2186.221436,-333.541321,-504.499939
2186.221924,-333.541382,-504.496002
2186.221924,-333.541382,-504.496002
2186.222412,-333.541443,-504.496094
2186.221924,-333.541382,-504.496002
2186.221924,-333.541382,-504.496002
2186.221680,-333.541351,-504.495941
2186.221680,-333.541351,-504.495941
2186.222412,-333.541443,-504.492035
2186.223145,-333.541565,-504.488129
2186.222656,-333.543457,-504.488129
2186.222168,-333.541412,-504.491974
2186.222412,-333.541443,-504.492035
2186.222656,-333.541504,-504.492096
2186.221924,-333.541382,-504.495972
2186.221924,-333.541382,-504.495972
2186.222900,-333.541534,-504.492157
2186.221924,-333.541382,-504.496002
2186.221924,-333.541382,-504.495972
2186.220703,-333.541199,-504.499786
2186.220703,-333.543152,-504.499817
2186.221436,-333.543243,-504.495941
2186.220947,-333.543182,-504.495819
2186.221680,-333.541351,-504.495941
2186.222168,-333.541412,-504.491974
2186.221924,-333.541382,-504.491943
2186.221191,-333.541260,-504.495819
2186.221191,-333.541260,-504.495819
2186.221191,-333.541260,-504.495819
2186.221680,-333.541351,-504.491852
2186.221436,-333.543243,-504.491852
2186.221924,-333.541382,-504.487885
2186.221680,-333.541351,-504.487854
2186.221680,-333.541351,-504.487854
2186.221191,-333.541260,-504.491730
2186.220703,-333.541199,-504.491669
2186.220459,-333.541168,-504.491608
2186.220459,-333.541138,-504.491577
2186.219238,-333.540985,-504.495392
2186.219238,-333.540985,-504.495392
2186.218750,-333.540894,-504.499298
2186.219238,-333.540955,-504.499420
2186.219238,-333.540955,-504.499420
2186.220215,-333.541138,-504.495605
2186.220459,-333.541168,-504.495636
2186.220947,-333.541229,-504.495758
2186.221924,-333.541382,-504.491943
2186.221924,-333.541382,-504.491913
2186.221436,-333.541321,-504.491821
2186.220703,-333.543152,-504.491730
2186.221436,-333.541321,-504.491821
2186.221191,-333.541290,-504.491791
2186.220459,-333.541168,-504.495636
2186.220703,-333.541168,-504.495697
2186.220703,-333.541199,-504.495728
2186.220703,-333.541199,-504.495728
2186.220459,-333.541168,-504.495636
2186.219971,-333.541077,-504.495514
2186.220459,-333.541138,-504.491577
2186.219971,-333.541077,-504.491455
2186.218750,-333.540924,-504.495270
2186.217773,-333.540741,-504.499084
2186.218506,-333.540863,-504.495178
2186.217773,-333.540741,-504.499084
2186.218262,-333.540833,-504.495148
2186.218018,-333.540802,-504.495117
2186.218994,-333.540924,-504.491241
2186.220215,-333.541107,-504.487488
2186.219727,-333.541046,-504.491425
2186.219482,-333.541016,-504.491364
2186.219482,-333.541016,-504.491364
2186.219971,-333.541077,-504.491455
2186.218994,-333.540924,-504.495300
2186.217773,-333.540741,-504.499084
2186.217773,-333.540741,-504.499084
2186.216797,-333.540619,-504.502960
2186.218018,-333.540771,-504.499146
2186.218994,-333.540924,-504.495300
2186.219971,-333.541077,-504.491455
2186.219727,-333.541046,-504.491425
2186.219238,-333.540985,-504.491333
2186.218750,-333.540894,-504.491180
2186.218018,-333.540802,-504.495117
2186.218018,-333.540771,-504.495056
2186.217041,-333.540649,-504.498932
2186.216797,-333.540588,-504.498840
2186.217285,-333.540680,-504.494904
2186.216064,-333.540497,-504.498718
2186.216309,-333.540527,-504.498779
2186.217285,-333.540680,-504.494934
2186.217285,-333.540680,-504.494934
2186.217041,-333.540649,-504.494873
2186.216064,-333.540466,-504.498688
2186.216064,-333.540497,-504.498718
2186.215820,-333.540466,-504.498657
2186.216797,-333.540619,-504.494812
2186.218018,-333.540802,-504.491058
2186.217773,-333.540741,-504.490967
2186.218750,-333.540894,-504.487152
2186.217041,-333.540649,-504.494873
2186.216797,-333.540619,-504.498901
2186.217285,-333.540680,-504.498962
2186.216064,-333.540497,-504.502747
2186.217041,-333.540649,-504.498932
2186.217041,-333.540649,-504.498932
2186.216797,-333.540588,-504.502899
2186.217529,-333.540710,-504.499054
2186.217773,-333.540741,-504.499084
2186.218750,-333.540894,-504.495239
2186.218262,-333.540833,-504.495148
2186.218262,-333.540833,-504.495148
2186.218994,-333.540924,-504.491241
2186.218506,-333.540863,-504.491119
2186.218750,-333.540894,-504.491180
2186.217773,-333.540741,-504.495026
2186.217285,-333.540680,-504.494934
2186.215820,-333.542419,-504.498718
2186.216064,-333.540466,-504.498688
2186.215332,-333.540375,-504.502594
2186.215576,-333.540436,-504.498596
2186.215820,-333.540466,-504.498657
2186.216064,-333.540497,-504.498718
2186.214844,-333.540314,-504.502502
2186.215332,-333.540375,-504.502594
2186.214844,-333.540283,-504.506531
2186.214600,-333.540283,-504.506500
2186.214600,-333.540283,-504.506500
2186.215332,-333.540375,-504.502594
2186.215332,-333.540375,-504.502594
2186.215576,-333.540405,-504.502625
2186.215820,-333.540466,-504.502716
2186.216309,-333.542511,-504.498840
2186.216064,-333.542450,-504.502838
2186.216309,-333.540527,-504.502838
2186.216797,-333.540588,-504.502899
2186.217285,-333.540680,-504.503021
2186.217773,-333.540741,-504.503143
2186.217529,-333.540710,-504.503113
2186.217285,-333.540680,-504.503021
2186.217285,-333.540680,-504.503021
2186.217773,-333.540741,-504.499084
2186.216553,-333.540558,-504.502869
2186.217529,-333.540710,-504.499054
2186.216797,-333.540588,-504.502899
2186.217285,-333.542633,-504.499054
2186.217041,-333.542572,-504.498962
2186.217041,-333.542572,-504.498962
2186.217285,-333.540680,-504.498962
2186.216797,-333.540619,-504.502960
2186.216309,-333.540527,-504.502838
2186.216064,-333.540497,-504.502747
2186.216797,-333.540619,-504.498901
2186.217041,-333.540649,-504.498932
2186.216797,-333.540619,-504.498901
2186.218018,-333.540802,-504.495117
2186.218506,-333.540863,-504.495178
2186.217529,-333.540710,-504.499023
2186.217285,-333.540680,-504.498962
2186.217529,-333.540710,-504.499023
2186.217529,-333.540710,-504.499023
2186.217529,-333.540710,-504.499054
2186.216797,-333.540588,-504.502899
2186.217041,-333.540649,-504.502991
2186.217041,-333.540649,-504.502991
2186.216797,-333.540588,-504.502899
2186.216309,-333.540527,-504.502838
2186.215332,-333.540375,-504.506653
2186.212646,-333.539978,-504.514160
2186.212402,-333.539917,-504.514069
2186.211182,-333.539734,-504.517853
2186.211182,-333.539734,-504.517853
2186.211182,-333.539764,-504.517914
2186.213379,-333.540070,-504.510254
2186.214600,-333.540283,-504.506500
2186.214844,-333.540283,-504.506531
2186.215088,-333.540314,-504.506561
2186.213623,-333.540100,-504.510315
2186.214600,-333.540283,-504.506500
2186.214600,-333.540283,-504.506500
2186.215088,-333.540314,-504.506561
2186.216309,-333.540497,-504.502777
2186.215576,-333.540405,-504.502625
2186.215576,-333.540405,-504.502625
2186.216064,-333.540497,-504.498718
2186.215088,-333.540344,-504.502533
2186.213867,-333.540161,-504.510376
2186.214355,-333.540253,-504.510498
2186.214355,-333.540222,-504.510468
2186.213379,-333.542023,-504.514374
2186.213867,-333.542114,-504.510468
2186.215088,-333.540314,-504.506561
2186.215088,-333.540344,-504.506622
2186.214600,-333.540283,-504.506500
2186.214355,-333.540253,-504.506439
2186.214355,-333.540253,-504.506439
2186.214355,-333.540253,-504.506439
2186.215820,-333.540466,-504.502716
2186.214600,-333.540283,-504.506500
2186.214111,-333.540192,-504.506378
2186.212646,-333.539978,-504.510101
2186.212158,-333.541840,-504.510010
2186.211670,-333.539825,-504.513916
2186.211914,-333.539856,-504.513947
2186.211670,-333.539825,-504.513916
2186.211426,-333.539795,-504.513885
2186.212158,-333.539886,-504.509979
2186.214355,-333.540222,-504.502350
2186.213379,-333.540070,-504.506195
2186.212891,-333.540009,-504.510132
2186.213135,-333.540039,-504.510193
2186.211914,-333.539856,-504.514008
2186.212646,-333.539978,-504.510101
2186.212158,-333.539886,-504.509979
2186.212646,-333.539978,-504.506042
2186.211670,-333.539825,-504.509857
2186.211670,-333.539825,-504.509857
2186.211914,-333.539825,-504.509888
2186.211914,-333.539856,-504.509949
2186.213623,-333.540100,-504.506256
2186.212891,-333.540009,-504.510132
2186.212646,-333.539978,-504.510101
2186.212891,-333.540009,-504.510132
2186.212646,-333.539978,-504.510101
2186.213135,-333.540039,-504.506165
2186.212158,-333.539886,-504.509979
2186.212646,-333.539978,-504.506042
2186.213379,-333.540070,-504.502136
2186.213135,-333.540039,-504.502106
2186.213623,-333.540131,-504.498169
2186.212402,-333.539917,-504.501892
2186.211182,-333.539764,-504.505707
2186.210449,-333.539642,-504.505554
2186.210449,-333.539612,-504.505493
2186.210205,-333.539581,-504.505463
2186.209961,-333.541504,-504.505463
2186.209473,-333.541412,-504.505341
2186.209961,-333.539551,-504.505432
2186.210205,-333.539581,-504.505463
2186.209961,-333.539551,-504.505432
2186.209717,-333.539520,-504.505341
2186.210449,-333.539642,-504.501495
2186.210449,-333.539642,-504.501495
2186.210449,-333.539642,-504.501495
2186.209717,-333.539520,-504.505341
2186.209229,-333.539429,-504.509277
2186.209229,-333.539429,-504.509277
2186.209473,-333.539490,-504.509369
2186.209717,-333.539520,-504.509399
2186.209961,-333.539581,-504.509491
2186.210449,-333.539642,-504.509613
2186.210449,-333.539642,-504.509613
2186.209717,-333.539520,-504.513458
2186.210449,-333.539642,-504.509613
2186.209961,-333.539581,-504.509491
2186.210449,-333.539642,-504.505554
2186.210938,-333.539703,-504.505615
2186.211182,-333.539764,-504.505707
2186.211914,-333.539856,-504.501801
2186.212402,-333.539917,-504.497833
2186.210938,-333.539703,-504.501556
2186.210205,-333.539581,-504.501404
2186.208984,-333.539398,-504.505188
2186.209229,-333.539429,-504.505219
2186.208984,-333.539398,-504.509247
2186.209229,-333.539459,-504.509338
2186.208496,-333.539337,-504.513184
2186.208984,-333.539398,-504.513306
2186.209229,-333.539459,-504.513397
2186.208984,-333.541351,-504.513336
2186.208496,-333.541290,-504.513275
2186.208740,-333.539368,-504.513214
2186.209229,-333.539459,-504.509338
2186.209229,-333.539459,-504.509338
2186.210693,-333.539673,-504.501526
2186.210449,-333.539612,-504.501434
2186.209473,-333.539490,-504.505310
2186.208984,-333.539398,-504.505188
2186.208496,-333.541290,-504.505127
2186.207520,-333.541138,-504.509003
2186.207520,-333.541138,-504.508972
2186.208496,-333.541290,-504.505127
2186.208984,-333.539398,-504.505188
2186.209229,-333.539459,-504.505249
2186.209229,-333.539459,-504.505249
2186.208252,-333.539307,-504.509094
2186.208008,-333.539276,-504.509033
2186.208496,-333.539337,-504.505066
2186.207275,-333.539154,-504.508881
2186.207275,-333.539154,-504.508881
2186.207031,-333.541077,-504.508881
2186.207031,-333.541077,-504.508881
2186.206787,-333.539093,-504.512817
2186.208252,-333.539307,-504.509094
2186.208496,-333.539337,-504.509125
2186.208252,-333.539307,-504.509094
2186.206787,-333.539093,-504.512817
2186.206787,-333.539093,-504.512817
2186.207275,-333.539154,-504.512939
2186.207520,-333.539185,-504.512970
2186.208008,-333.539246,-504.513062
2186.208008,-333.539276,-504.513092
2186.208496,-333.539337,-504.509125
2186.209229,-333.539459,-504.505249
2186.208740,-333.539368,-504.505127
2186.207520,-333.539185,-504.508911
2186.205811,-333.538910,-504.512573
2186.206055,-333.538940,-504.508545
2186.205322,-333.538849,-504.508392
2186.204834,-333.538788,-504.508301
2186.206055,-333.538940,-504.504486
2186.206299,-333.539001,-504.504578
2186.207275,-333.539124,-504.504761
2186.207764,-333.539215,-504.504883
2186.207275,-333.539154,-504.508881
2186.207275,-333.539154,-504.508881
2186.207031,-333.539124,-504.508789
2186.208008,-333.539246,-504.504944
2186.206787,-333.539093,-504.508759
2186.205566,-333.538910,-504.512543
2186.204834,-333.538757,-504.516388
2186.204834,-333.538757,-504.516388
2186.204590,-333.538727,-504.516357
2186.204834,-333.538788,-504.516418
2186.206787,-333.539093,-504.508759
2186.206787,-333.539093,-504.508759
2186.207031,-333.539124,-504.508789
2186.207031,-333.541077,-504.508881
2186.206299,-333.540955,-504.512787
2186.206787,-333.539093,-504.512817
2186.208008,-333.541199,-504.509094
2186.209961,-333.539551,-504.505432
2186.210205,-333.539581,-504.505463
2186.209473,-333.539490,-504.509369
2186.209473,-333.539490,-504.509369
2186.210693,-333.539673,-504.505585
2186.210693,-333.539673,-504.505585
2186.211182,-333.539734,-504.505676
2186.212402,-333.539917,-504.501892
2186.211670,-333.539795,-504.505798
2186.211426,-333.541748,-504.505829
2186.210693,-333.541626,-504.509705
2186.210693,-333.541626,-504.509705
2186.210205,-333.541565,-504.509613
2186.209229,-333.539459,-504.513397
2186.209961,-333.539581,-504.509491
2186.209717,-333.539520,-504.509399
2186.208252,-333.539307,-504.513153
2186.208496,-333.539337,-504.509155
2186.207764,-333.537262,-504.512939
2186.206787,-333.539093,-504.512817
2186.206543,-333.539032,-504.512726
2186.207275,-333.539154,-504.508881
2186.207764,-333.539215,-504.508972
2186.208008,-333.539276,-504.509033
2186.208008,-333.539276,-504.509033
2186.208252,-333.541229,-504.509125
2186.208252,-333.541260,-504.509155
2186.207764,-333.539215,-504.513031
2186.208008,-333.539276,-504.513092
2186.208740,-333.539368,-504.513214
2186.208252,-333.539307,-504.513153
2186.208252,-333.539307,-504.513153
2186.208984,-333.539398,-504.509247
2186.208496,-333.539337,-504.509155
2186.208740,-333.539368,-504.505127
2186.206787,-333.541046,-504.508820
2186.206787,-333.541016,-504.508789
2186.206787,-333.541046,-504.508820
2186.207031,-333.541077,-504.508881
2186.207275,-333.539154,-504.508881
2186.208496,-333.539337,-504.505066
2186.207764,-333.539215,-504.504883
2186.207764,-333.539215,-504.504883
2186.207275,-333.539154,-504.504822
2186.207520,-333.539185,-504.504852
2186.205811,-333.538910,-504.512573
2186.205078,-333.538818,-504.516479
2186.204590,-333.538727,-504.516357
2186.204834,-333.538788,-504.516418
2186.205322,-333.538849,-504.516510
2186.205078,-333.540741,-504.516510
2186.205078,-333.540741,-504.516510
2186.205566,-333.538910,-504.516602
2186.206055,-333.538940,-504.512604
2186.204834,-333.538788,-504.516418
2186.205322,-333.538849,-504.516510
2186.205811,-333.538910,-504.512573
2186.207031,-333.539124,-504.508789
2186.207764,-333.539215,-504.508972
2186.207764,-333.539215,-504.508972
2186.207275,-333.539124,-504.508820
2186.205566,-333.538910,-504.512543
2186.204102,-333.538696,-504.516266
2186.203613,-333.538574,-504.520172
2186.203857,-333.538635,-504.520264
2186.203857,-333.538635,-504.520264
2186.204102,-333.538666,-504.520294
2186.204590,-333.540710,-504.516418
2186.204590,-333.538727,-504.516357
2186.204834,-333.538788,-504.512360
2186.205078,-333.538818,-504.512421
2186.205322,-333.538879,-504.508423
2186.205566,-333.538879,-504.508453
2186.206055,-333.538940,-504.508545
2186.205566,-333.538910,-504.512543
2186.206055,-333.538940,-504.512604
2186.205078,-333.538818,-504.516479
2186.205566,-333.538910,-504.516602
2186.205566,-333.538910,-504.516602
2186.205078,-333.538818,-504.516479
2186.203613,-333.538574,-504.520172
2186.203613,-333.538605,-504.516144
2186.203857,-333.538635,-504.512115
2186.205078,-333.538818,-504.508331
2186.204590,-333.538727,-504.512299
2186.203125,-333.538513,-504.516022
2186.202393,-333.538391,-504.519867
2186.201172,-333.538239,-504.523712
2186.201660,-333.538300,-504.519745
2186.201660,-333.538300,-504.519745
2186.202881,-333.538452,-504.515930
2186.202881,-333.538452,-504.515930
2186.203369,-333.538574,-504.512054
2186.203369,-333.538544,-504.511993
2186.203125,-333.538513,-504.511963
2186.202881,-333.538452,-504.511871
2186.202881,-333.538452,-504.511871
2186.202881,-333.538452,-504.511871
2186.202148,-333.538361,-504.511719
2186.201660,-333.538300,-504.511627
2186.200928,-333.538208,-504.515533
2186.200684,-333.538147,-504.515442
2186.199951,-333.538025,-504.515289
2186.199219,-333.539856,-504.515167
2186.198730,-333.539795,-504.515076
2186.197754,-333.537720,-504.518860
2186.197021,-333.539551,-504.518738
2186.196777,-333.537537,-504.518616
2186.197754,-333.537689,-504.514771
2186.198242,-333.537781,-504.510864
2186.198730,-333.537842,-504.510925
2186.199219,-333.537933,-504.511047
2186.199707,-333.537994,-504.511169
2186.199219,-333.537933,-504.515137
2186.198486,-333.537811,-504.519012
2186.199463,-333.537964,-504.515167
2186.200195,-333.538055,-504.515320
2186.199951,-333.539978,-504.515320
2186.201660,-333.538269,-504.511597
2186.201660,-333.538300,-504.511627
2186.201904,-333.538330,-504.511688
2186.200684,-333.538147,-504.515442
2186.200195,-333.538055,-504.515320
2186.200928,-333.538208,-504.511475
