10.788332297179114, 79.93893926748008, 16.890981341055582
15.663885411801221, 79.03698915510408, 13.250062282998723
11.268802595769152, 80.48810836961697, 16.658668011842728
13.667265006410735, 80.8966736310052, 14.747882053946043
14.567419060859104, 80.71254091662621, 14.111789104361954
12.177132965165654, 80.7556352545171, 15.889774554421184
12.675068724966223, 80.8758477190144, 15.485958279581606
12.469414992012187, 80.86042207851044, 15.619576647473572
12.810598913979074, 80.8950256448104, 15.387934815134034
14.806977428445087, 80.65201284451194, 13.950183050553102
10.771596051758891, 79.22475009724806, 16.898305616073404
15.390478588687163, 80.49534517781896, 13.480710850167254
15.340384499804692, 80.6105009462257, 13.224679868364877
14.94921393964632, 80.67105931405725, 13.705340597197559
14.119008730641022, 80.90554478815002, 14.303004193945725
13.103239963105514, 81.04660744624805, 15.073283890482454
15.790275777893669, 78.64939721159365, 13.026190257075825
11.720697644142318, 80.81048936615007, 16.017163578125277
11.339643063075462, 80.64673174660759, 16.3652965204774
10.617401519442327, 80.11032474564878, 16.925922918813054
14.863766518580023, 80.72371491695068, 13.709376934032704
10.532441133339884, 78.87910028708633, 16.947448042968666
10.45495622227279, 78.40935639869363, 16.960907735708034
15.770077288532457, 79.89534840399018, 13.047381527452043
15.724484853078312, 80.31033995711138, 13.110374171875177
10.659413708107792, 80.44338533760595, 16.862512183983092
13.717488486661797, 80.95563275048708, 14.648192580447622
13.796615421563564, 81.07888298948662, 14.475086461810495
15.759427129924996, 80.41428194075277, 13.036384947724208
12.870538099675942, 81.0807458488587, 15.212140077473162
12.708104745843931, 81.00327140791289, 15.362637140168811
14.580968308298342, 80.80859627246106, 13.914180587745715
11.012424211963456, 80.59708533144669, 16.53833866674128
10.829985755954349, 80.61242474718466, 16.56081442352121
12.564956287586668, 81.06320037335186, 15.411059848756649
12.34631154428494, 81.05478183456344, 15.538018231686609
10.40383994952419, 80.46494258418687, 16.892160135890457
10.391307460221487, 80.03518914575739, 16.970652655845626
14.95877871370727, 80.72629189495657, 13.561210893016353
14.648721367051689, 80.86675211644997, 13.73422210735787
12.804095735864518, 81.16794469634208, 15.211226411385208
10.109443659210713, 79.51736734613063, 17.01793182311903
15.537803709201686, 80.68968155941128, 12.663784331073284
10.288807171532579, 80.4387290182707, 16.937343969221544
13.531531961519061, 81.19327746151326, 14.6485853438979
15.953254240244227, 78.84028787773114, 12.699289398726648
15.950987497167334, 79.22009650943535, 12.701117482368248
13.031564549681505, 81.23335415996272, 15.024145322999571
12.659437246126123, 81.09185159200791, 15.338634339479949
12.903776946958216, 81.2514609072063, 15.112945029054785
12.668119159138458, 81.24197970401772, 15.261954989379571
14.162970909745649, 81.02121676948794, 14.140292997604679
13.958457959385047, 81.09969787998097, 14.297125465291003
13.51006626658532, 81.20686076998443, 14.662047385570261
13.50118134515348, 81.32579776459893, 14.639527194069725
13.28459521058447, 81.28569067514209, 14.822536439130609
13.922124115132835, 81.20906390842256, 14.2648364671838
13.229580552609853, 81.55031061949504, 14.851248284901695
12.851210772101393, 81.87357596177392, 15.117085469880188
12.76253142672603, 81.3510982896073, 15.19252457631798
15.882482978740512, 80.14144839089049, 12.814193036924479
15.909573996424347, 80.4223616173062, 12.718439605954245
10.208972409923957, 79.863686845169, 17.002574125593867
12.986474398554652, 81.66992532315334, 15.028700129443314
13.16604845939429, 81.92920410078075, 14.888730165495335
12.982117724420284, 82.49990647900668, 15.017680030358358
13.541826760162069, 81.53665284616277, 14.592046936830616
13.834086593175785, 81.32929593244813, 14.331708878620649
10.240212467303087, 80.6026759537343, 16.69221357161868
14.676510736554697, 80.95703617735165, 13.563068440909479
13.315527186185596, 82.20533232570713, 14.76542518919327
12.663521780986958, 82.22277739028632, 15.234918687371454
16.004749236242716, 78.56740376881618, 12.584913613204549
15.826950425056316, 80.47356833944744, 12.829983469402404
11.941108344853184, 81.00792792238897, 15.766349259013634
11.76532374567649, 81.12604181459527, 15.78074704971811
12.444015284140622, 81.31602603628505, 15.387890468168155
12.566211896180038, 82.07986728040522, 15.296757936062196
13.93773292070124, 81.43833514950265, 14.21747987647749
13.852901016014783, 81.73118698561153, 14.287620954191805
13.09077669654651, 82.51149911030437, 14.937840904348189
12.94084099208529, 82.83617690399748, 15.045710599764917
12.784345402856392, 82.83308403627656, 15.153438983300365
12.86931057258562, 83.13259980382952, 15.094947415719707
12.54440363347094, 81.5609903030567, 15.320383666342202
12.106054694176523, 81.28191390668391, 15.570413739079545
14.245030449760701, 81.22072145686427, 13.91086469453727
14.11828389773221, 81.30080083311802, 14.035709424729209
14.02949167326058, 81.30208121229136, 14.133177027390566
10.089685953767152, 80.38888074304401, 16.993897117273068
10.136025139868906, 80.29224502750624, 17.006314296619927
9.966130815608501, 80.32167299482977, 17.0247621164723
12.650304965765486, 83.04246603268723, 15.239984691256087
14.865045052733125, 80.80990928201793, 13.530662824936433
13.600363054210032, 82.93614163069336, 14.510464994256242
12.936989729446598, 83.3912895177927, 15.04569217378313
12.798165320397901, 83.66344469013886, 15.138326579570151
12.490445210289735, 82.38399844909482, 15.33961055118311
13.46549402871732, 83.27898113511696, 14.630165093267166
13.392691018422983, 83.333812602108, 14.692430440240376
13.518317729838213, 83.53338118247027, 14.580517717258648
13.41105231469685, 83.71070315749459, 14.67338309983483
12.92521265076642, 84.07063779408566, 15.046498935554819
12.913146783188221, 83.76976167982073, 15.058913788531285
12.587788356404163, 83.47299129057832, 15.276075181496303
13.573709852712739, 83.92431587876752, 14.52597568534362
12.286534408481963, 82.3595643019841, 15.455165649361781
13.932519490698716, 82.16980110943041, 14.190165723780066
13.761171598910023, 82.2263952537972, 14.364552730956522
12.893119136838004, 84.2596954749162, 15.06579272675049
12.745529209336047, 84.24847935183685, 15.165169108814016
13.344649789977119, 84.48255309461733, 14.722212924250528
12.397557298382312, 83.08896006449447, 15.392174237351314
13.620349973736285, 83.43725039245038, 14.48781823318092
13.673362741901528, 83.81131854641241, 14.433461130499767
10.189773396287995, 79.276647545063, 17.006049140338625
9.98603477991825, 79.43287614479928, 17.03328858213142
12.673701250955979, 83.66597495986659, 15.21935404832033
12.928573548324003, 84.99578222200518, 15.031230620157304
12.835930670045876, 84.52201959765536, 15.101045870966267
13.733126013130034, 83.14955620265572, 14.382310331945709
13.160728147483658, 84.68542974865012, 14.866788631974769
9.933885600746809, 78.91534530729677, 17.03820352940429
13.28064768765871, 84.81003256916007, 14.771258840604894
13.312547699860378, 85.16890148947955, 14.747817661042763
14.154634389110761, 81.40113022205534, 13.982995605658669
14.163101765788992, 81.57910824412427, 13.95863127793103
13.462344587055709, 84.25494977926297, 14.622422009707494
13.48880646752768, 84.65584588626146, 14.595887122476833
12.70410677975235, 84.55297978627704, 15.187687764149594
12.55414930200659, 84.29321081501483, 15.28643686714048
12.06561602007431, 81.94550517280048, 15.571922173256912
13.110877426048134, 85.04189144353784, 14.900715560499815
13.266478984233295, 85.46912679960235, 14.788094866856184
13.090303033671889, 85.24591012729098, 14.915360964317454
12.952662017724913, 85.26975469183029, 15.01144753976385
13.379941199548306, 85.66918385239596, 14.707234626710964
13.288865684936539, 85.6913291738182, 14.77270683707771
11.573733508156444, 81.01191721552922, 15.917155998900437
13.461552447681118, 85.48026399816634, 14.63820101593288
13.393918608825736, 85.1601703662741, 14.683390563803151
13.615488977982004, 85.81136341206803, 14.527399167419953
13.481559483059481, 85.87946105226968, 14.62946507954425
13.379764218198606, 85.94430582166748, 14.693813983106379
13.331665057011346, 85.86670600921906, 14.739221938753492
13.837478228707099, 83.34351752761022, 14.27443681577025
12.13592513852337, 83.18911943587048, 15.534972162637743
13.100046114095099, 85.50395435590148, 14.906077069839487
12.724837876714606, 85.13628818519955, 15.166412664403897
13.526028404537207, 85.35057817028502, 14.578049587061841
13.06603531175513, 85.82274205312773, 14.922100985789822
13.551454224873725, 85.0968637040428, 14.544157971083223
12.082408613568333, 82.60886508073129, 15.561568342527512
13.636035753458557, 85.6676253865757, 14.498703027573573
12.250796942908753, 83.98083138136843, 15.465890730992811
16.103664264993267, 79.76912573923198, 12.327834668237806
16.066171609388313, 79.86327930807124, 12.416789074297986
12.931252059174176, 86.02016073036027, 14.992931488198366
13.120501375123576, 85.68271160422995, 14.890345962208752
12.968070226631717, 85.54324503818425, 14.996427283292508
13.68926001821579, 85.91676382017387, 14.430162104532666
13.795573670958667, 85.8842039694206, 14.338061545379144
13.518904253516771, 84.7510507157692, 14.568293601154632
13.702067435430486, 85.71533301055642, 14.431185276633009
12.306646792804761, 84.38617587097144, 15.430442131217113
10.551967395663164, 80.61315387957966, 16.622590803286883
13.632152913251975, 85.0896881869536, 14.469481013596107
12.825088594732982, 85.54341695359875, 15.093825569328072
12.599669636896117, 85.16896310172241, 15.246636183729379
12.029130280025777, 81.30913899344696, 15.606791396952321
14.619090359607153, 81.0340049864254, 13.560761485129646
13.693901320201382, 85.45236485472401, 14.42275801579886
13.70578446324952, 84.72862165543945, 14.390997525222398
13.961959761334873, 83.20707211342257, 14.144596738768573
12.385795133721288, 84.829455523275, 15.381110767017464
12.686346913385945, 85.85097824519434, 15.168735480515156
11.632454856831608, 81.24606510027354, 15.793751817348394
16.025249371799323, 80.31224419156737, 12.483240378596857
16.058743079915484, 80.20199885298173, 12.412094388845023
12.55370374186973, 85.65942870674438, 15.264453990071715
13.795103072702886, 85.1974770151653, 14.306119159971491
13.314688820943253, 86.0612081900114, 14.65322338528318
13.060101485941452, 86.02793779276648, 14.896594403241043
13.684484533330892, 86.02896657589233, 14.308291497468039
11.948480400942461, 82.98543078990983, 15.628052197881281
11.83488666132758, 82.4012466285472, 15.678792918080646
14.111271475954133, 82.7457682622762, 13.984351888292842
14.221594347409079, 82.10719289587905, 13.86516013927606
14.823984588733225, 80.98215721360997, 13.31981022356434
14.711708994707308, 80.9914480587236, 13.47482144302023
11.93236115216666, 83.27943312062992, 15.635571226812013
15.859976335621502, 80.50914708740635, 12.653801408822964
15.871853146854916, 80.55248319762354, 12.457146705418321
12.034322304994541, 84.23414409530073, 15.579764486841817
12.976683736291198, 86.07712571279839, 14.872666272594852
10.92602072442199, 80.69739366260154, 16.413433909943947
10.660021391286469, 80.70898936706706, 16.46352612693827
10.4013348549641, 80.79107085933718, 16.41680692016795
12.639206335221022, 86.01639441981439, 15.182382449421976
12.346637431198822, 85.62956010541856, 15.393614957836666
14.021466930617713, 83.83000747562005, 14.069203856705105
12.037164064925834, 85.2650815565333, 15.584017360791988
12.04252113005276, 85.4862693070735, 15.57731584952985
13.952973821555894, 84.75961751809349, 14.130148542359867
13.864212368081656, 85.45707349035393, 14.235726640256072
12.796307532328091, 86.08046868306467, 14.980995511619497
12.262047182332669, 84.6544716424585, 15.452683817144708
13.833684142501266, 85.78594707766084, 14.28496573975843
13.982338498259828, 85.31636188557438, 14.09373147598457
13.872654249560163, 85.88388253612575, 14.239031055705025
13.91848308937053, 86.09306577809183, 14.192785021170167
12.199722207365792, 85.72404017618693, 15.475269569388598
12.180023316383267, 85.61694202727422, 15.49298392013965
12.530260332071531, 85.92678212743682, 15.260763438204899
12.551715295126332, 86.03219423693928, 15.233928773150925
16.068606972529608, 79.2598157384494, 12.431580305032668
11.985078232634049, 83.89091946908597, 15.60707343025041
12.028107776484434, 84.98992414084294, 15.585373505794635
14.176164601418233, 82.94706392112757, 13.905088052572541
11.798235357037077, 82.95043540869702, 15.696719661687943
13.140454869173853, 86.05870566181893, 14.791835799880374
11.971461702066646, 84.56160993870519, 15.611518203615635
11.751104558421918, 81.76579339423026, 15.719448086975163
16.087680082049577, 80.49245462842009, 12.217381578953134
14.360234821736084, 81.69520744650511, 13.709407485839474
11.694018460296952, 81.30521096093733, 15.756653186744249
11.548080748207765, 81.4385875001356, 15.809068655020926
14.000986589726896, 85.61975077809936, 14.071205459667887
13.939066527137273, 85.99789865150136, 14.156515590774637
12.419788423219426, 85.91364140235541, 15.328405645257202
13.995565736373626, 84.0802348962723, 14.09311179311647
14.11429185049815, 83.82516656655051, 13.962585026934885
14.046069405221413, 84.51296031132527, 14.027776589373367
14.712018628472292, 81.1110639024658, 13.35300177973563
14.59633230858717, 81.1274225760672, 13.508356632107354
16.118861112581754, 80.0662609256049, 12.271059167354867
16.161826723051043, 78.14785898535587, 12.202584073877247
11.168985112618003, 81.03043090625002, 16.04715145078223
11.881605760269164, 85.442565929077, 15.661160137499298
14.521860038302963, 81.2854520825881, 13.53416642343701
16.08352400216378, 79.49608089709967, 12.387765444564312
16.149146966433, 79.30488588747095, 12.225065829771928
16.161708677838092, 79.48705012987028, 12.184755224124672
15.113276223104487, 80.80476624904031, 13.149277055057881
12.218164660086147, 86.0532007901924, 15.408063212678876
11.793388743751118, 84.65594497278477, 15.697529018133114
11.871930440173795, 85.53923858216076, 15.66268986028458
14.169133090006293, 83.4570767935933, 13.905535565162456
14.172740611410905, 83.99264243141772, 13.889338611126732
11.630391109288567, 82.91516677155882, 15.768443964104563
14.020153776248161, 85.08041376392875, 14.047970491034961
14.07350016973017, 85.39661021233105, 13.977621525930804
9.843896201677996, 80.41358778464416, 17.01766545777717
9.758792941932512, 80.38461298917117, 17.03640375337712
10.0827992846501, 80.46743058560291, 16.937402790058357
11.870479553418882, 84.1309506443345, 15.661288574195167
14.283019093127422, 83.07765910216457, 13.773305485282766
14.349583232814904, 83.5167028560609, 13.682441594780103
11.924444074592344, 85.69660634698074, 15.627284586754808
16.036037588632173, 80.43053541732394, 12.421754175863446
11.519488088341927, 83.62486284065808, 15.81353941638038
14.19211824078123, 84.60756711645405, 13.849436298174364
14.529699561327424, 82.08408403437703, 13.465687348505009
11.541398912687807, 85.36089136098894, 15.811467436814352
12.88069987334504, 86.08764067746314, 14.897712606578743
12.778642575507392, 86.06521239942983, 14.890264491680469
13.085490791471969, 86.07150910315485, 14.760683890190293
13.225221795442181, 86.07086540109653, 14.591204608674417
14.338284598967203, 84.14559587251591, 13.677839957322076
11.836012125669559, 85.63358598503943, 15.67451123682132
9.492477871639686, 79.61875162515263, 17.074946243742687
11.625860674846585, 84.78390821113466, 15.772911368468769
9.59364054539076, 79.90794249447855, 17.06722596971521
14.277890373738535, 84.44329024339686, 13.746376715648033
10.300844561655985, 80.7189448241265, 16.518630350853805
12.972925250449165, 86.08593770524107, 14.751019386784463
14.12808557000329, 84.84715200118762, 13.920820060482367
14.172690931883677, 85.35797565854399, 13.847693798978158
16.14114717233683, 78.54853121127347, 12.255494922013439
11.850895273892068, 85.74593053912683, 15.657026275286004
11.425482311692559, 82.6979421686428, 15.847797194654664
9.747731707111726, 80.46351625325525, 16.982238720135
14.576555064736644, 81.39641712224058, 13.441887788551453
14.6800433487989, 81.34154032296134, 13.296363137516948
12.018186400134818, 85.9630540425502, 15.534325429047712
11.952293388082332, 85.98438230046794, 15.561524787768922
11.056920996611419, 81.40359209651133, 15.98264172720953
15.062457017254827, 80.99701060981995, 12.904835730038489
16.203772817407813, 78.34404019205651, 12.088863624037778
14.512958396215527, 81.91524197425397, 13.494374299773797
11.245491611323416, 82.19801034306114, 15.910877067460598
11.277355631578398, 81.90729610850057, 15.901400442372797
16.14272795614369, 80.3566875503863, 12.178897685544541
14.37364578084204, 83.06419514563216, 13.659584478536562
10.93005433694704, 80.87801067054473, 16.21865655455413
10.562171264451717, 80.84901602700948, 16.331907920341333
11.914497553099526, 86.03631487823505, 15.458601782719434
14.116094475003173, 85.7914913261763, 13.911541545750378
14.130504209261213, 85.9090055637426, 13.884779465322524
14.177986366591648, 85.86864189048882, 13.814494319938095
16.08819222771639, 80.42323474142016, 12.296297883178134
14.73211180546635, 81.22427550218067, 13.2428081297721
10.94664329329758, 81.01620782929137, 16.12109361872524
9.59825054976198, 80.44022082913926, 17.034141083218362
11.427388855221302, 84.75189122535159, 15.851846585210062
14.19795609696298, 85.18603167410188, 13.820936453674738
14.736319637056868, 81.78780263678317, 13.171461490881335
14.537956544550715, 83.82360396831484, 13.420387299497653
11.355454841208275, 84.44894142259035, 15.876323820019248
15.831051201717735, 80.63564590049945, 12.20497206236634
15.563446892808091, 80.74848107925551, 12.439606353837304
9.877261011256977, 80.66602576742413, 16.64391786157655
9.725019743359441, 80.57207942394888, 16.793460344592514
11.662799821842555, 85.76570847437131, 15.73746985991371
11.757724700663609, 85.81324622903819, 15.689931486697539
11.712903685920198, 85.92145382655343, 15.676748400550828
16.23559130931939, 79.28737830379316, 11.983147556419734
16.267450239991724, 79.61099729197451, 11.878248978608179
9.61368746024188, 78.63039532053872, 17.065790354389776
11.295886941852535, 84.05399876616673, 15.89764321073276
16.117755853366262, 80.46520240353928, 12.18447479922992
14.496353781284203, 82.50602076968325, 13.503674355210562
9.415244498337627, 79.16401826794822, 17.078060348427307
14.1351556257367, 86.02323055706464, 13.871954490883951
14.255759678773034, 85.91890657269063, 13.689919310359576
9.504916161600988, 80.3315433936282, 17.06174552386388
11.14269288208692, 81.66713302243376, 15.949628605879813
15.443558167054572, 80.74392084471526, 12.696060376077423
10.681785214321302, 81.25686735659147, 16.09540420865629
16.18570152336512, 79.07232638988681, 12.130327908072577
16.21639382887419, 78.72941757936759, 12.049820814740144
11.404519044445603, 85.42729906382667, 15.860592142511326
11.554733004246437, 85.90720864192456, 15.757582602691674
11.392052866460206, 85.88354063244378, 15.830776233951994
14.409885562541747, 85.00329690025036, 13.53872913993725
13.4526428819859, 86.07778114500616, 14.3394914082509
14.547783608730487, 82.63392069466785, 13.43060912825698
15.348536269111316, 80.88912240913803, 12.53942738045566
11.320803935563898, 85.71500549093491, 15.873047211581028
14.887634507049935, 81.25275634489094, 12.978634087368885
14.602719694319793, 81.98486924885043, 13.364652467945433
14.673587971968846, 82.1238241690355, 13.255573105935847
11.498152464100077, 85.99838221949406, 15.743637837619303
12.978571005684083, 86.01609524840642, 14.680406999449602
12.929197207011457, 85.99738187812856, 14.771730779000599
11.619205636584756, 85.9590940556468, 15.706756060548425
14.28593014828157, 85.54323084000815, 13.67675459406519
14.523535255991511, 85.1013605964006, 13.365201729787938
14.663007505846487, 83.0574890200699, 13.257686714358414
11.149841009134274, 84.1777304530753, 15.948338817211154
16.281786830548963, 78.72233652314928, 11.857204594746097
14.358735032417563, 85.68863216886503, 13.550734544007277
14.278780607116111, 86.0311203857555, 13.64339159324745
11.144465968468236, 81.92962451865448, 15.945715260701048
16.247524728413836, 80.31289699351237, 11.884189452363941
14.252256114356626, 86.05400069176625, 13.684182094871067
11.075588609120878, 82.64737537176828, 15.967944006116854
11.016000362017934, 81.91023948418311, 15.98591759958699
13.163312288855025, 78.27843717418205, 14.322723852845144
12.811680558362433, 78.37132677250767, 14.58217581603234
12.936777378405898, 78.44226665073369, 14.492820583156526
9.213156328621995, 80.03851098369488, 17.079893345158503
9.403726757385433, 79.77973918982053, 17.078062810271142
11.175139654379258, 85.1684100826205, 15.942163639241667
10.89969288745338, 83.35671315712406, 16.02492451029699
13.053703159377788, 78.69731254731879, 14.399106572303195
11.105607432210444, 85.54079915449199, 15.953861511909533
12.512642798139789, 78.0353301823872, 14.798435578564442
12.578881067672988, 78.20058326631491, 14.749233593740342
11.273365578385715, 85.79885743625394, 15.88016837914325
12.661174382132911, 78.17808826164678, 14.691455285577316
13.358830671777202, 78.20425694708373, 14.155364966507605
12.915325441035995, 78.55441647278151, 14.50578214798178
11.053316573877357, 85.73980102291395, 15.954736249216747
13.205339604322266, 78.50630145353207, 14.283131698977089
13.289601224895877, 78.77329318832864, 14.197581492316719
13.371393831763593, 78.46111957903553, 14.137433026262332
13.108722994718416, 78.86206189882073, 14.350627477450079
12.78568417216685, 86.10035885611308, 14.743699815676674
12.80217978839486, 78.92560484082617, 14.580574982142275
12.571979573439764, 78.39270467555941, 14.734446627815863
12.609772748324627, 78.4928621498412, 14.707006584455568
10.400544004394352, 80.9702545488567, 16.27673855767824
13.09881520768025, 79.13802604106624, 14.352215871200874
12.969001576783604, 79.35191606344932, 14.457126777909355
12.84597407842274, 79.41059765171792, 14.550586080540725
12.64333011315944, 78.6856385316438, 14.683087315707558
14.413136463292277, 85.87026517985133, 13.438702787059384
13.501621980952894, 78.34825911227969, 14.013026224951528
13.461635857819893, 78.21792008002078, 14.057766869343407
13.473325001382626, 78.5524725382898, 14.032571710246454
14.796882559696835, 81.44458606802431, 13.10179514522077
10.533346419529893, 82.93819107876963, 16.11619147319091
16.293153004166708, 79.2280579638367, 11.810190518552652
14.735272374508817, 83.01308515954406, 13.148568845777604
13.064036241925113, 86.0040268702342, 14.625641196245803
13.040203664245222, 85.98273115161247, 14.50878844031974
12.946550351814265, 85.92034065518477, 14.525054558179097
9.280735313102987, 80.41099281970999, 17.05706783137823
9.391910164471769, 80.38780369499753, 17.05845168223722
12.492842786620256, 78.47635188099848, 14.775160679384307
12.465387202743784, 78.64180579960966, 14.78534392597911
12.933353404674069, 79.55671299243005, 14.48540582001316
12.815035883579664, 79.62907937874417, 14.574740502588924
12.89042466550561, 79.98364002939513, 14.52621161453574
12.973856239619149, 79.78112332182363, 14.457266279027584
10.894880909879896, 85.26820497987744, 16.026674717090188
12.813725046841409, 80.1318081250153, 14.583001887321323
13.064743844738143, 80.30326417816795, 14.38991229176062
13.15481729746731, 80.13117955703396, 14.313073895976874
12.649841204381534, 79.84146829010032, 14.693420916506192
13.396096285493464, 78.61807717872816, 14.10632680137965
13.410430280475335, 78.810635710364, 14.077618567524038
12.960407088076693, 80.547933028171, 14.470280776837491
14.788542613202985, 83.4400585326486, 13.054706221388589
12.722496624969157, 80.44165174697378, 14.647369849106317
12.67445092798259, 80.08257214508875, 14.680277067602688
14.851970991890937, 81.35132638144707, 13.021573295242654
10.216988249547525, 80.88655247818608, 16.366447466483677
9.915649519135894, 80.79486280972515, 16.48627927155825
12.40885072815648, 79.76522304513608, 14.84507296126381
13.029460204229823, 85.92807676301845, 14.460945473456135
13.249880832653155, 79.7929295072709, 14.222016837330909
12.96713930180755, 80.81504589192213, 14.458440865057735
12.604712364411702, 80.61000435859405, 14.724564102296313
10.46679245203817, 81.42311793584213, 16.135162783501073
15.159597191705798, 81.12813601562955, 12.580126429671369
9.29020217452793, 79.46415640845362, 17.082828427624083
14.402517886193412, 85.96484147751178, 13.44350647306446
12.66103180540787, 80.92048950049887, 14.679741873422437
12.908518589301835, 81.0180728667241, 14.497232078200433
13.290699359517014, 79.03849870409553, 14.181680599097405
13.238082564387426, 79.63825826170486, 14.227221263042205
13.376496390366471, 79.37903082156646, 14.089621737323087
13.414151630525668, 79.26562660044063, 14.051283582445748
12.569996981888757, 80.19287863832767, 14.750205906065489
12.346398258463985, 80.09806165277125, 14.888939852591943
13.07383525654878, 80.592690595037, 14.377080570183733
14.74024320010453, 82.25152899916239, 13.150942383772408
12.111751233923675, 78.32166468050394, 15.05414601060348
11.98494773508495, 78.18605933844263, 15.119588563256112
12.009789707513438, 78.3690443116064, 15.103063142834316
13.370166228246985, 79.77484176246988, 14.106699715619305
13.360231482762671, 79.63796763489826, 14.111039939423401
12.446518208086202, 79.18988667654254, 14.80497466007371
12.193632701897059, 79.84254327351614, 14.9724720887265
13.364969081055687, 80.24122049368533, 14.119823755543518
13.410051392703611, 80.57431722478401, 14.072563387391593
12.303787651242224, 80.3983277960103, 14.914998776409506
16.236292357962082, 79.94093498965205, 11.954426320775472
16.267464413166515, 80.09640769622374, 11.847877113408138
12.419572853643754, 79.05269769387975, 14.814577025090756
9.369300226881183, 80.27611165376261, 17.071108802325394
12.372240336308288, 79.43593614932784, 14.857617241661398
11.279266934487799, 86.02864460510928, 15.796012679950596
14.682065364330786, 84.80833450443166, 13.148155361089113
12.366530018039123, 79.33099330325447, 14.85306277656801
12.299693682494393, 79.50964248480265, 14.90324119244694
12.592071756694422, 81.2509890988716, 14.718445543570319
12.951706124057871, 82.03747856611952, 14.484041577571068
12.98341541206242, 81.8307100043094, 14.451235657736017
12.997334363234465, 82.10029411333954, 14.447271459620586
13.002444864220534, 82.65540306938051, 14.454701811683197
12.924014924387109, 82.70294671847137, 14.529305935549445
13.066774457225385, 82.6453667202063, 14.392845560316957
12.847880506553842, 81.44805762569251, 14.54090381534849
12.840574030262989, 81.63438189375518, 14.553524467792828
12.748888716334513, 81.78776855643908, 14.628437590278383
12.846733012065696, 81.80619876441125, 14.558034648067345
12.67023606746541, 81.65677329565244, 14.675515948643113
12.90013514969483, 81.51365663235742, 14.504805511374704
12.48979821957821, 81.01183864619254, 14.791099606678618
12.477748172727154, 81.26694362521543, 14.792409485535458
13.503456409403679, 79.04339098761433, 13.962560725597772
14.954643321191654, 81.4518074079943, 12.828895561856095
12.998255198505424, 82.42025057232055, 14.449495935227947
13.081525602303104, 82.26505542020588, 14.376451535158733
13.216005042324738, 82.25313943362936, 14.253616969386815
12.339078254915798, 80.82636425307847, 14.888288792847288
13.246038491835714, 82.04208726477904, 14.225594491729586
12.220163036672936, 80.09586601789741, 14.96158052016091
12.8360859383793, 85.88815737291237, 14.59077369569356
11.919850517549527, 78.47368827739676, 15.142726801116206
13.532765745350979, 78.89002828996121, 13.93999175685998
13.608548433985534, 79.8341437812284, 13.864419691673074
12.66160320889998, 81.50052169187263, 14.673811005762026
12.591058722642893, 81.57200088742427, 14.723897831275483
13.442915115532728, 79.41787370855509, 14.02275234941893
11.017206746454534, 84.71585265735628, 15.993151253489266
10.90111428308658, 84.58208968464484, 16.029197687634134
13.212886714921247, 81.29437208498624, 14.245117396452905
12.865574996101968, 82.72541169311347, 14.583279820997479
10.35530813800661, 81.06289291124874, 16.233786778768966
13.142684866922863, 81.72469064896474, 14.313755697029887
14.623965354322932, 85.21052912377024, 13.195253056077064
14.467421561696032, 85.57590589406888, 13.39495006221918
14.442107864771865, 85.72558975131281, 13.411635786015568
14.522301642536679, 85.77069097055235, 13.268805255694089
13.167331409089643, 86.06332953060894, 14.450538536269065
13.25511780463555, 86.03791996695523, 14.306749261450022
12.067417483708713, 80.34396403099963, 15.045652617252564
14.427187407193182, 85.82427441948062, 13.422359771853575
14.682929089986391, 84.4035895211442, 13.178590398326184
9.18135008624245, 78.54710616430323, 17.082303835786952
12.769149452488113, 83.45219312031173, 14.626829814859937
14.826187269020963, 83.71482287165196, 12.982227281147988
14.780339859707485, 84.05259788746703, 13.043259220395962
13.125821353635237, 82.57800028111838, 14.335200694847611
13.226080459707923, 82.56474461232432, 14.239314336900676
16.329308640153002, 78.97121190804765, 11.70094189719277
12.785615339334534, 83.74532009291933, 14.614309790528193
12.847833694044997, 83.60627030590032, 14.559949119882106
10.950038089241033, 84.00048934869233, 16.011685048419018
10.758369630259358, 84.48291394213014, 16.06975020148829
12.274777083647471, 80.62439853454015, 14.93019617643083
12.024162719082906, 79.91926565196846, 15.065825238858622
12.366155575135526, 81.13900463963094, 14.862364875723534
12.306912416220381, 81.3216577639924, 14.89526774574655
11.699834884884996, 85.9810290881363, 15.365945800742146
12.427820631312112, 81.45742977627638, 14.82414766576423
13.290068736517505, 82.36469227485443, 14.180038822691392
13.127269179543376, 85.97246013026484, 14.402369751762027
13.187216397939576, 85.88799081876357, 14.309701720294544
13.53507634317231, 79.26715207706427, 13.917044760809093
15.696417807269123, 80.69109379546319, 12.322230222378064
15.58477028427036, 80.81571339270151, 12.174211575271023
13.31304197994162, 86.07208626068785, 14.261154588025512
12.934742717094915, 83.24599542060588, 14.48886818482508
13.002269492877538, 83.40201310340395, 14.428779480356386
11.947691323332657, 78.60774837997671, 15.12840423585725
11.972675087532451, 78.76723132732819, 15.114396808845225
16.310030283338104, 79.7956148245858, 11.735746351102078
13.000401295493083, 83.08282535424706, 14.412433480212627
12.846710440378688, 83.90311443399435, 14.561579530353338
12.778932347786213, 84.06597460728088, 14.619698981981902
13.01957876207332, 83.82157558280569, 14.408250715679392
13.017234232456502, 83.99095064319941, 14.410720174223577
14.917954526841221, 82.17756205460151, 12.85612868916713
12.853765911929349, 84.26051981346723, 14.54925886705759
12.903385016510102, 84.20202681516321, 14.508076589412818
14.775179229913654, 84.54779180899861, 13.019178040518032
13.4866524132803, 79.35010004501991, 13.97156955552528
13.451230244946156, 81.69947999331423, 14.019780188337181
12.959575622141163, 85.81449355782861, 14.457960983701446
12.372482278736612, 81.38345532956347, 14.856843231851231
13.377655759951164, 82.53343409478988, 14.08955973343922
13.3667119626409, 82.19808533298746, 14.105782237931953
11.162620790628829, 85.99987104496962, 15.869881985373908
11.060636292085542, 85.88839645014758, 15.935462834843369
13.033491681050734, 84.3089434473389, 14.388269895679462
13.36558581517115, 81.98623727725024, 14.107345516933325
10.692785593124828, 81.88152767014923, 16.07465618491637
10.628506355895308, 81.44306075357414, 16.097754767499254
13.264110713870153, 82.65759675259669, 14.198252214461657
16.299382574154695, 80.24565241934786, 11.732216392756156
12.911232339525661, 84.52294847536884, 14.490719702066595
13.773606484762578, 80.17838027469813, 13.68503611641226
11.827393146510378, 78.41718482943489, 15.183549982593764
16.06918382452868, 80.54568935934, 12.01413499708863
15.921866616835587, 80.6321728428776, 11.981133916777328
13.062604252019444, 83.62044004590948, 14.368372704503233
13.18904360076417, 83.8934651194395, 14.24977251136706
12.269988287599029, 81.3337703434119, 14.916639219382224
12.110959444797219, 80.94642846521519, 15.0128616974898
11.919784406247233, 79.07023539081372, 15.13075722881045
13.620630703539259, 80.91732954367956, 13.847869675855453
14.840772776870928, 83.3509825935142, 12.971896136419778
10.728346368987893, 82.45131027949007, 16.065628920117778
11.8923601004157, 80.2977161208854, 15.135466058110094
12.023043733836452, 80.70204116632928, 15.063441041055246
11.945253199968896, 80.86325485091828, 15.100527395106852
13.274429246022045, 83.04249994206587, 14.17076743728083
13.445400547027017, 82.65494849010442, 14.01770366367897
13.651523772818829, 79.76438618489222, 13.81704696001698
13.563783841706716, 79.73534332028893, 13.911311928208125
13.71041275073897, 79.78416006291403, 13.752504296727498
11.827173619800394, 79.75258981956215, 15.168504420548619
16.069687796011635, 80.57987301303409, 11.825060656907665
13.54487738477102, 81.3537063459533, 13.92477076718674
13.314815251564118, 85.89537214527581, 14.197905060636831
13.197444735659953, 85.8653135032777, 14.296913249164952
12.060310316678043, 81.31299458793752, 15.047009727580694
12.03301254001473, 80.99778073006738, 15.054092042799788
15.237164827324134, 81.02202348979817, 12.540899499543388
13.731885755976979, 79.60823521083942, 13.726191262835925
11.805059388769205, 78.78481852140277, 15.193687529447901
11.919793267461777, 78.87563158639395, 15.1372350479518
16.24056190467829, 80.455892592407, 11.832314036361838
14.793252120296476, 84.90190479182304, 12.952977280149376
14.735065060051287, 85.14531997851526, 13.021283184532628
13.710369708556115, 79.13142094994046, 13.707151902900293
12.969564427349061, 83.24169698877304, 14.418840564347478
13.198483213704243, 83.18681691401028, 14.229396655158759
13.318060688285438, 83.17415124745764, 14.123780639585545
11.919592563174051, 79.55747209145225, 15.118377887385689
11.818954000008834, 79.50436809225361, 15.17222669719752
11.850768804981406, 80.79697545622396, 15.147886544790978
10.604742404681874, 83.300819735076, 16.102092583070725
16.19766784399974, 80.49460995863278, 11.865478085934283
13.23973206960722, 84.13233526636984, 14.198754925165604
13.369048338026898, 83.9765626556636, 14.070976334412798
11.607996078056003, 79.97657268199626, 15.279675207663338
13.652679706204975, 81.85780792021784, 13.805055972639611
11.751978257316956, 79.06534877946878, 15.212367025457384
11.641703973822757, 79.08171239929788, 15.266482433013175
13.636727724813824, 82.34958523304567, 13.816777030592139
13.051527089234398, 85.55942610950831, 14.37819497878851
12.819429476811289, 85.38609642372847, 14.545380518160059
11.710936368580203, 78.33989886848998, 15.229718815012887
9.197673076548174, 80.62572367349925, 16.744121455172266
13.055026199680077, 85.68298115246931, 14.383976724199183
13.17468917033144, 85.82917925489673, 14.303542273566912
12.689949392594409, 85.6527859951682, 14.659240265856438
12.737346509457382, 85.8111500560591, 14.64408443931276
12.853706927550576, 85.66469258293345, 14.54561422106974
13.665059641569545, 81.01475853746126, 13.79740085826294
11.568780186804071, 78.86723314386602, 15.29396665529152
11.724424991663504, 79.24142209579475, 15.225333112407935
11.851381729490647, 79.31429519415957, 15.155038053947187
13.39854608958278, 83.53909900902177, 14.042729631508273
13.875523311514833, 79.68992286299058, 13.563396858198843
14.540701314536946, 85.77063165271976, 13.235222001270532
14.908256061637498, 83.00311441101391, 12.863229889392194
13.063278688942653, 84.6809245810554, 14.346901964804887
13.196098242509901, 84.7726045105575, 14.221104442100007
11.986906672231862, 81.1781043811805, 15.08432090813114
11.97112863710148, 81.02076669471012, 15.08811620872147
11.872956387003805, 81.04300801600189, 15.140150478082685
10.52647601272464, 82.89135964495524, 16.117560765423462
11.82313643690593, 84.01838385752019, 15.2254167551071
11.931504923590886, 84.11702202104203, 15.17422608200495
13.282301101311141, 83.33961608094359, 14.147932560935555
13.277523550558362, 83.4002872660518, 14.15373964319516
12.986589157884048, 84.87639267364996, 14.406082229737144
15.141252402269455, 81.25160478734539, 12.51623900275872
13.88098205179147, 78.37682807113539, 13.582736933984098
13.957855772711127, 78.34719746026371, 13.508043785119305
13.962539097241383, 78.23670354157285, 13.502836857648976
13.95333225552241, 78.52722905416906, 13.504026590930579
12.885096874428037, 85.28476212539505, 14.490294932872095
13.884548240514809, 78.3362079702402, 13.578383952792608
10.482986118854395, 81.99299914270512, 16.12255924890052
10.457159065562966, 81.94954198052066, 16.128396662210832
8.995455120153114, 79.84943068900945, 17.082747498248278
8.910007750295673, 79.57809421190592, 17.082803027472433
9.153201903161643, 79.28182336758867, 17.084876558601486
11.782303364526413, 79.3839069186772, 15.192525332036556
14.857794945128308, 83.76387131673273, 12.926171722188581
12.905058214747081, 84.84586117659896, 14.469414330784101
12.827371269939016, 85.07893884778998, 14.525096476563162
13.245925002023297, 85.83490273274424, 14.23671689547222
13.486830656083718, 82.75900239974582, 13.973574103269998
13.295564723559853, 84.52101626694481, 14.131434904795404
13.27765824966284, 84.77533969304291, 14.141334978951607
13.515687639194606, 83.09689812909167, 13.947982549476247
13.997862321967801, 78.09304927556929, 13.470767644142835
13.846728783576316, 81.17838251289908, 13.592846311301875
12.478611432715113, 85.71897630905843, 14.798674874337149
12.53943502092579, 85.81250663082979, 14.76976025624307
12.449931200852074, 85.77576017393332, 14.821288298053021
12.360266424571508, 85.74478936318609, 14.874264722981616
11.619419084858997, 78.34420863527822, 15.263256092250662
14.588016978375862, 85.80644585303459, 13.144170374347713
11.955114410722212, 81.52697277794049, 15.126823389037767
13.76855554514292, 79.02564696844192, 13.636335989486428
10.688991456497604, 84.08193353985365, 16.08570746192597
14.72863125328513, 85.39999851065276, 12.990384206915468
14.69614654649338, 85.64370541294645, 12.991398631912677
13.791850544795668, 80.51226594302545, 13.66066939092174
13.848553994268189, 80.34983412078402, 13.597850626987338
14.026258323600173, 78.50331269469255, 13.425167192669443
14.091770089165742, 78.39063643466244, 13.350878553860351
13.594181121213895, 82.72667037288784, 13.864385401141119
12.578818484309863, 85.24042553256461, 14.69432639591103
10.904135954794222, 85.84501585787312, 15.984809485698518
10.708538299628987, 85.76401663049631, 16.04811867776588
12.659692238493882, 84.92355772677118, 14.634172016986142
12.67186959172645, 85.1040512506461, 14.628849085888751
12.74656073905566, 84.91373554608536, 14.57604852706405
12.567828221491787, 84.91356983947914, 14.694206839220243
9.333284812630533, 80.7230266459142, 16.606248788940178
14.862510564884374, 84.27675000618886, 12.890573275999472
11.64318559100305, 86.00784069254522, 15.423796911887013
13.576961861930078, 84.19258491148024, 13.844656704906093
13.56376860929957, 83.95327604117193, 13.866133428138227
10.778206672426517, 85.26225369655077, 16.06040327019343
13.877045912258284, 78.52480853707327, 13.578576696083939
11.465743524340356, 79.08430409915935, 15.344125907811636
13.428115720724376, 84.54737952915555, 13.99319922421221
13.354558554279013, 84.41689619387242, 14.074033842457862
13.304896614195183, 85.65020291159257, 14.149322110511159
13.239570932707743, 85.36830637222941, 14.189345527247832
11.532466648530663, 78.30750034906201, 15.293962187226011
13.824057296890746, 79.58991622144764, 13.620817597614273
12.25900672614243, 85.73553375455586, 14.943181722284663
12.221959329014975, 85.66004653842563, 14.955767496316856
12.177126241050647, 85.71008145618215, 14.990014545674146
10.530499069084001, 84.94044363843172, 16.130342176145092
12.542052000672875, 84.89029646123443, 14.710193555311212
13.739297199647616, 81.34519363515793, 13.716482687980886
13.219460756404565, 85.03541554368711, 14.195739003647866
13.276098838308997, 85.26862168399626, 14.147015756657334
13.684995095054099, 82.72713668580127, 13.765797747925225
13.709648284022666, 82.52706981976213, 13.736368141047777
13.326858207796786, 85.6171413513952, 14.12182006299112
13.41379605098885, 85.70890131366441, 14.040608359576723
12.4559957234887, 85.11482477122225, 14.76746646053012
12.329705749270547, 85.55045120913023, 14.87526916975199
12.514638670480572, 84.97857189030051, 14.727450119597508
12.476967414188831, 84.95710244363191, 14.765425136531626
11.657520606498604, 85.92987360491196, 15.343124157336739
13.741327294242748, 82.24643625738102, 13.70005428037772
16.373852949079904, 78.77484796660475, 11.55483873289018
16.3867517556957, 79.09610608488292, 11.499235689248168
13.243056953749276, 84.97536279738028, 14.171702335328867
13.430255690460449, 84.71884582860169, 13.985946956789286
13.406579598107378, 85.21494392619337, 14.01020530427634
13.39051636580263, 85.08507663388829, 14.024714189046335
13.496218026660449, 85.5678543142434, 13.93164140716123
11.711948312072476, 83.88381252654585, 15.27096363484456
13.79567739495415, 79.12873105538301, 13.591943059955472
12.11710583988333, 85.64021010010931, 15.021933363936368
12.440729148106495, 85.11416077096646, 14.776401281219968
13.486801921507507, 83.72680373371833, 13.94978005986934
13.516178386714815, 83.80023038572035, 13.918069953693252
9.917943305517621, 80.91190671161485, 16.388943399391465
11.494862098966259, 80.5299033158773, 15.321960797881728
10.930542146758077, 86.01086349233661, 15.919005298515396
10.924958400315433, 86.02993480429548, 15.898494372406809
11.511469625857405, 85.81185795733224, 15.362435821689797
14.036884890822794, 80.37659152592362, 13.371472882732002
13.414754497165568, 84.9022180808481, 13.99939631415364
13.868834892876453, 79.99102760116823, 13.573142756058326
13.968355951278815, 80.08923357987783, 13.456793993404132
14.03799286148961, 79.88582412725887, 13.372325846292064
9.171534865260748, 80.32493844872873, 17.072724636003556
11.623637879528768, 81.14391526003871, 15.291541223712379
12.272743134615304, 84.99709738404334, 14.890178934550605
12.285623817249427, 85.06575403525291, 14.881110304027358
12.264862826419348, 85.38390268364941, 14.90438212364328
12.202800190156712, 85.29039055072846, 14.945069127056005
12.09805010308973, 85.35045287812196, 15.015290446322563
13.465786947887388, 85.74977121105458, 13.989067497932757
13.475169948567924, 85.6350018593738, 13.962746888954193
16.341940890646423, 80.34468088315249, 11.57579718051263
16.376357890611324, 80.10934019270918, 11.485597620025432
14.226812590384505, 78.16393389158053, 13.16854032934674
12.16137835060589, 85.17270154264214, 14.972798521764211
12.138580273952705, 85.0748650494283, 14.985594331177161
8.96387945050517, 78.7342731754354, 17.08191732980617
9.005732812408445, 80.21416275484721, 17.076215793981667
11.384761652896799, 78.33749257590337, 15.349915443421668
11.240239035135048, 78.5214380924788, 15.405785266207193
11.349057756243642, 78.6488882424735, 15.367781221045941
13.49616127930725, 84.75251534973107, 13.914794132553881
14.970375490444994, 83.47184357917851, 12.737724914106938
13.83390581518148, 78.9654743273906, 13.550369965553738
10.415045531401258, 83.3343260919029, 16.144694420422493
13.799366489662475, 81.75705117415609, 13.64339948180815
15.30318004688348, 81.06960096071477, 12.343179267466061
11.983645516757383, 85.4937156871361, 15.096513175318218
11.591745843011054, 83.30160231748586, 15.321276102303862
16.35640390634031, 80.48152848120421, 11.382332325139577
16.268280391653747, 80.50472181252175, 11.617339884430084
11.588724007688256, 81.00417329786383, 15.303525356998504
11.468512146728997, 80.90487228875169, 15.34981564985804
14.886140812427413, 83.91202847722006, 12.869531804812308
14.980079173710319, 83.67664691954873, 12.709591872798129
14.94301328438489, 84.0912645083136, 12.757458763958198
11.905697307351083, 84.66509149227856, 15.129209305548496
13.901729002930438, 81.73467800494207, 13.52150007601474
10.331818027662738, 81.27601820148475, 16.16942554746588
11.54399924310641, 83.97869041615864, 15.33409225665002
11.643178358092214, 84.07428406336399, 15.291305570290689
11.501121657510078, 83.81811209662467, 15.353827709902443
11.437904722357391, 79.79208269469675, 15.364369500014334
13.477831503426067, 85.05460903787822, 13.931821579802287
12.01887776147787, 85.36199659254423, 15.06976174292942
11.772888216196435, 85.22690450849508, 15.210910785102893
11.68496523719867, 83.72595353854446, 15.286265810426043
11.569530595439941, 83.57019792904599, 15.331795707381719
11.920493905716437, 84.7659098136509, 15.130522124454512
11.878359808242607, 85.02170341759486, 15.152934436816622
11.947842532540815, 84.98629874249067, 15.112264051290227
10.250490929098612, 81.14008110265614, 16.213824686243576
10.131458303769481, 81.08701468855182, 16.260148650909436
11.836145977016866, 85.5498202860844, 15.18594248033725
13.622784574127692, 83.78922701821402, 13.802466853156066
13.784603997025986, 84.03682857786639, 13.610196652364118
13.499328130844052, 84.90717015789124, 13.908563950992837
14.953628576748518, 82.82767524971008, 12.78381579364396
9.791488601330627, 80.81129573398393, 16.48335733879731
10.573624701614513, 85.64153106358785, 16.095752923135162
10.524304320635954, 85.41356879646595, 16.122579817434993
10.449751580430446, 85.62331277038373, 16.13202160826223
13.498433497248659, 85.7275058400309, 13.947474712116225
13.64287056977934, 83.11752919368239, 13.777891341215113
13.740292077063877, 83.10595022535458, 13.676185948497361
13.94211982524956, 81.18969812892495, 13.482895858385806
13.975121959326135, 80.73898589005448, 13.441055925250453
13.642491195877708, 85.76969469532318, 13.781035102480091
11.691790951285938, 84.41338696947835, 15.259029394405559
11.607879248866926, 84.50190317813605, 15.294455006821034
11.727520924928037, 84.78842190299743, 15.234759356233242
10.60041722065859, 85.77366873688393, 16.07472107851392
11.511652966669041, 83.30818497170392, 15.352320580358876
11.579746658725838, 83.49120970341806, 15.327645632070283
11.66331355383877, 83.46857528575964, 15.279157899472764
11.35218761307396, 80.03548229096569, 15.396361392709387
13.828015323772135, 79.20542176043145, 13.5433199884571
8.860645123038854, 79.28777407912061, 17.08143665606652
11.27392733190209, 79.48320428175813, 15.438414302188384
11.20719367062954, 79.84409861681877, 15.46418995985812
11.521318153623207, 80.83470756909722, 15.302855598562296
11.525142963081688, 85.98253689479832, 15.433418513520996
10.143893281521203, 83.0924335079462, 16.193043619978752
11.514412480815029, 82.19583383244559, 15.355325221825634
11.491919434629171, 82.06124297229697, 15.366592429054329
11.428855153355958, 82.21184891544958, 15.390174176479062
14.0331641569955, 79.73148164496881, 13.378810902918852
10.541705509574054, 83.370414478517, 16.11710561949064
14.821067110385139, 85.54041704092592, 12.79020905437121
10.39964618804718, 82.62508943713084, 16.142210635005934
13.883273532373185, 81.69631211614478, 13.547849304244515
13.604111772920282, 85.08099574470141, 13.789360088902129
13.626709119971581, 84.91028580833927, 13.764650239216724
13.64880498851053, 85.31427139109918, 13.737611108671544
13.885446487241182, 82.99536361569422, 13.523976578855063
13.897127972604157, 82.83789676807406, 13.519560929946561
11.521432437183064, 82.83542957222332, 15.346152175833542
11.438845743428498, 82.86705310178165, 15.377441616959295
11.695222204287028, 84.33374526518983, 15.25988372096041
11.453873603947759, 83.49011677446303, 15.373405210883185
14.635224222157618, 85.78518190603563, 13.063788256519455
13.63077352107029, 83.35805155772685, 13.768253573008943
13.672853611340106, 83.4766305870442, 13.73292922292238
